# .PCD v0.7 - Point Cloud Data file format
VERSION 0.7
FIELDS x y z intensity
SIZE 4 4 4 4
TYPE F F F F
COUNT 1 1 1 1
WIDTH 1363
HEIGHT 1
VIEWPOINT 0 0 0 1 0 0 0
POINTS 1363
DATA ascii
-17.259604 -53.880119 -0.3298139 57
-14.949485 -54.73243 -0.99134457 51
-26.372717 -82.3339 -2.0132587 9
-11.922979 -65.497444 -1.9374878 3
-11.321732 -41.453495 -1.5013585 28
-30.223307 -82.007591 -3.5576966 14
-14.408724 -63.466377 -3.0315959 62
-10.826365 -39.639755 -2.1535199 30
-12.664945 -34.366776 -2.129169 34
-14.252363 -62.772575 -4.1208954 65
-11.116068 -40.700474 -2.9473348 26
-12.671134 -34.387268 -2.7690504 32
-11.432403 -35.697647 -3.2701631 22
-13.047378 -35.41214 -3.5082755 23
-9.8234158 -43.26239 -4.3866386 7
-11.494781 -35.894581 -3.9441078 25
-11.299267 -35.288296 -4.5213318 15
-9.9863853 -31.191833 -4.5644522 15
-7.864471 -28.799004 -4.6792068 5
-7.1527977 -26.192919 -4.7246237 5
-6.5557055 -24.008068 -4.7591615 6
-6.0472403 -22.145985 -4.7842145 7
-4.7332721 -20.826845 -4.8151765 5
-4.4166427 -19.428938 -4.8313169 6
-4.1231775 -18.133585 -4.8242583 7
-3.888329 -17.096588 -4.8439317 8
-20.434141 -63.33712 1.9368478 58
-17.352495 -53.78212 0.65790743 36
-19.401503 -84.636742 0 132
-17.354603 -53.788658 -0.32947579 53
-20.470858 -111.13268 -1.3155588 14
-15.050811 -54.652798 -0.99047107 56
-26.551851 -82.299416 -2.0137708 8
-12.064476 -65.495918 -1.9381859 3
-11.359707 -41.252403 -1.4949338 29
-30.491596 -82.204544 -3.5690036 14
-14.570631 -63.562637 -3.0376449 61
-10.887092 -39.536118 -2.1491237 31
-12.750782 -34.377613 -2.1314902 37
-14.379788 -62.725079 -4.1197453 8
-10.963986 -39.815357 -2.8848956 43
-12.77572 -34.44854 -2.7761328 34
-11.495521 -35.637596 -3.2668605 22
-13.129825 -35.407139 -3.5104969 31
-9.9059963 -43.206802 -4.3830962 7
-11.530853 -35.749268 -3.9307859 25
-11.355478 -35.209759 -4.5143065 15
-10.051084 -31.168964 -4.5641761 15
-7.9242458 -28.780565 -4.6788969 5
-7.2118249 -26.193079 -4.7273669 5
-6.6075377 -23.999968 -4.7602887 6
-6.0920506 -22.127609 -4.78299 7
-4.7755723 -20.81118 -4.8138571 5
-4.4568901 -19.417751 -4.8308454 6
-4.1633134 -18.134342 -4.8267698 7
-3.9211073 -17.075254 -4.8402038 8
-20.552109 -63.361992 1.9385933 54
-17.524576 -54.024921 0.66121352 31
-19.536226 -84.613953 0 131
-17.421177 -53.706161 -0.32913768 55
-15.13397 -54.619453 -0.99029636 61
-31.033352 -95.675583 -2.3422601 15
-12.169534 -65.488686 -1.9385351 3
-11.410083 -41.182503 -1.4930483 30
-15.112486 -40.547417 -1.7614405 22
-14.709109 -63.707081 -3.0456483 48
-10.942782 -39.495869 -2.1478677 29
-12.820804 -34.400574 -2.1341598 37
-12.206999 -52.865902 -3.4734557 50
-10.930095 -39.450077 -2.8596687 33
-12.889707 -34.589142 -2.7890921 33
-11.54411 -35.596752 -3.2647746 21
-13.160395 -35.319294 -3.5038323 32
-9.993557 -43.276516 -4.3917556 7
-11.585767 -35.727325 -3.9303696 24
-11.395463 -35.144665 -4.5082502 16
-10.098809 -31.14937 -4.5636239 15
-7.9641695 -28.749041 -4.6758003 5
-7.2461214 -26.157032 -4.7229095 5
-6.6441798 -23.985773 -4.7595372 6
-6.1236649 -22.106691 -4.7805419 7
-4.8069382 -20.797951 -4.8125377 5
-4.4851971 -19.401258 -4.8284888 6
-4.1891766 -18.116465 -4.8237562 7
-3.9522684 -17.087856 -4.8455296 8
-20.668346 -63.380951 1.9401641 52
-20.591858 -63.142647 0.77320075 43
-19.675909 -84.612381 0 128
-20.870079 -63.995785 -0.39239797 50
-20.806993 -110.99903 -1.3147439 14
-15.24606 -54.690002 -0.99200839 66
-31.165003 -95.569687 -2.3408632 16
-12.275334 -65.485207 -1.9390005 3
-11.36366 -40.765976 -1.4785926 29
-15.195783 -40.576027 -1.7637181 34
-12.30952 -52.934673 -2.5315723 47
-10.991401 -39.430534 -2.1452508 29
-12.888828 -34.417789 -2.1364813 37
-12.290026 -52.846664 -3.4734557 52
-10.97062 -39.355984 -2.8540938 28
-12.936331 -34.548309 -2.7874343 30
-12.205894 -52.484901 -4.3894844 5
-11.607423 -35.601307 -3.2668605 22
-14.289772 -38.166924 -3.7885523 39
-10.056564 -43.239441 -4.3895907 7
-11.672701 -35.803642 -3.9407773 24
-11.435272 -35.079533 -4.5021944 15
-10.152637 -31.148535 -4.5658326 15
-8.0119705 -28.746012 -4.6773486 5
-7.2909031 -26.158905 -4.7253094 5
-6.6813211 -23.973413 -4.7591615 6
-6.1620617 -22.110247 -4.7833982 8
-4.840044 -20.792274 -4.8129773 5
-4.5191932 -19.409332 -4.8322592 6
-4.217629 -18.109861 -4.8237562 7
-3.9782302 -17.077871 -4.8444643 8
-20.661322 -62.912071 1.9271315 53
-20.022339 -85.292015 1.5307789 16
-20.704088 -63.038582 0.77245569 43
-19.898327 -84.763748 0 119
-20.965374 -63.834126 -0.39167514 72
-21.022657 -110.86679 -1.3136963 10
-15.403851 -54.811958 -0.99480361 8
-27.034185 -82.316933 -2.0176356 9
-12.409852 -65.445602 -1.9385933 4
-11.442526 -40.718994 -1.4777547 28
-15.280026 -40.542244 -1.7636368 35
-18.662727 -79.500282 -3.8039196 42
-11.028573 -39.245914 -2.1364584 29
-13.008765 -34.517765 -2.1443739 35
-12.41026 -52.86161 -3.4761391 51
-11.03737 -39.277222 -2.8500521 29
-12.991782 -34.476349 -2.783818 27
-12.245173 -52.158421 -4.364315 6
-11.677609 -35.563667 -3.2656436 21
-14.475703 -38.418304 -3.8165061 37
-10.137094 -43.175655 -4.3852611 7
-11.712913 -35.673283 -3.9291205 26
-11.490759 -35.000805 -4.4951692 15
-10.214146 -31.11591 -4.5641761 15
-8.0673485 -28.712048 -4.6745615 5
-7.3446083 -26.139784 -4.7246237 5
-6.7299223 -23.953695 -4.7580347 6
-6.2035894 -22.080328 -4.779726 7
-4.8795638 -20.764997 -4.8090186 5
-4.5580549 -19.392258 -4.8303742 6
-4.2542195 -18.095335 -4.8222499 7
-4.0078111 -17.04323 -4.837008 8
-20.748837 -62.845367 1.9260843 55
-20.136507 -85.176781 1.5292764 74
-20.850109 -63.148411 0.77420187 46
-20.06596 -84.878365 0 21
-21.036774 -63.713757 -0.39113882 72
-20.885731 -109.20721 -1.2944186 11
-15.653686 -55.366901 -1.0053204 29
-27.175365 -82.31044 -2.0185201 10
-12.517145 -65.449593 -1.9392915 4
-11.505929 -40.699047 -1.4776849 15
-15.207812 -40.159374 -1.7480186 38
-18.788961 -79.476707 -3.8041987 64
-11.096183 -39.249683 -2.1376097 27
-13.024788 -34.396458 -2.1381061 35
-12.490065 -52.828457 -3.4752445 51
-11.099053 -39.259834 -2.8500521 27
-13.050864 -34.468956 -2.7848728 26
-12.284893 -51.960651 -4.3493762 5
-11.742826 -35.573662 -3.2682512 21
-13.041253 -34.447201 -3.4240441 24
-10.183377 -43.068645 -4.3760118 7
-11.755218 -35.613285 -3.9245412 26
-11.532658 -34.943123 -4.4900818 16
-10.258664 -31.08666 -4.5622435 15
-8.1065273 -28.678425 -4.6711545 5
-7.3819075 -26.114941 -4.7222238 5
-6.7680745 -23.944984 -4.7584105 6
-6.2430587 -22.087513 -4.7833982 7
-4.9153204 -20.770597 -4.8120975 5
-4.5898538 -19.390747 -4.8317881 6
-4.2835302 -18.092398 -4.8232541 7
-4.0394645 -17.057549 -4.8428664 8
-20.889719 -62.939823 1.9299824 55
-20.29899 -85.265656 1.5314426 18
-20.962507 -63.155437 0.77469081 46
-13.525153 -56.812237 0 7
-21.145649 -63.707207 -0.39130205 73
-18.710905 -97.009331 -1.1501856 10
-16.160782 -56.81942 -1.0321542 30
-27.31974 -82.313194 -2.0196376 9
-12.618802 -65.423958 -1.9391168 4
-11.585702 -40.736675 -1.47971 25
-15.24174 -40.058861 -1.7446835 36
-18.916094 -79.45681 -3.8046639 68
-11.107557 -39.055466 -2.12798 26
-13.041172 -34.277054 -2.1319544 35
-12.578117 -52.830128 -3.4766502 52
-11.131236 -39.138725 -2.842526 29
-13.15463 -34.578892 -2.7954209 29
-12.512393 -52.554073 -4.4006886 5
-11.801828 -35.564629 -3.2691202 22
-13.113047 -34.473206 -3.4286723 14
-10.257471 -43.0797 -4.378767 7
-11.833696 -35.662743 -3.9320347 24
-11.568151 -34.866554 -4.4825721 15
-10.306235 -31.066748 -4.5616918 15
-8.1499443 -28.659954 -4.6702256 5
-7.4213028 -26.097628 -4.7211952 5
-6.8056788 -23.934322 -4.7584105 6
-6.2681069 -22.043779 -4.7760534 7
-4.9456792 -20.753363 -4.8098984 5
-4.6167016 -19.368387 -4.8280177 6
-4.3110466 -18.081881 -4.8222499 7
-4.0617814 -17.032431 -4.8375406 8
-21.038605 -62.947124 1.9315534 56
-20.529385 -85.438774 1.535321 20
-21.050356 -62.978626 0.77306104 45
-13.614674 -56.66127 0 50
-21.2486 -63.571732 -0.39074245 72
-20.398769 -104.58195 -1.2404739 10
-16.294077 -56.835426 -1.0330626 58
-21.598291 -64.621696 -1.5866653 5
-12.765748 -65.448402 -1.9406296 4
-11.685316 -40.76228 -1.4815257 16
-15.37348 -40.151886 -1.7501335 36
-19.090401 -79.450043 -3.806246 83
-11.167866 -38.957241 -2.1238978 29
-13.043685 -34.068794 -2.1206958 35
-12.690136 -52.809494 -3.4770334 52
-11.201088 -39.073132 -2.8394597 30
-13.215614 -34.521465 -2.79301 34
-11.069606 -46.065723 -3.8593102 10
-11.878183 -35.545502 -3.2696416 21
-13.179523 -34.43079 -3.4271913 12
-10.347674 -43.058125 -4.378767 7
-11.910254 -35.643539 -3.9326594 25
-11.629827 -34.808353 -4.4782114 16
-10.373161 -31.05073 -4.5625196 14
-8.205596 -28.627628 -4.667748 5
-7.4726877 -26.070663 -4.7191381 5
-6.8530855 -23.910576 -4.7565322 6
-6.3223529 -22.058836 -4.7821741 8
-4.9909592 -20.750546 -4.8116579 5
-4.6595297 -19.368126 -4.8303742 6
-4.3507195 -18.080341 -4.8242583 7
-4.0997005 -17.033257 -4.8402038 8
-21.06933 -62.711231 1.925328 57
-20.695072 -85.536644 1.5376619 19
-21.116772 -62.848801 0.77187365 49
-13.270967 -54.851414 0 76
-21.363081 -63.581882 -0.39101058 68
-20.532917 -104.39673 -1.2386578 11
-15.789329 -54.750031 -0.9956072 24
-21.635458 -64.396263 -1.5819626 6
-12.86931 -65.432198 -1.9407459 4
-11.827419 -41.014668 -1.4913722 65
-15.387026 -39.998997 -1.7445208 37
-19.216587 -79.425781 -3.8065252 85
-11.223512 -38.92046 -2.1228511 29
-13.122272 -34.113487 -2.1247582 34
-12.777298 -52.806953 -3.4781835 52
-11.278481 -39.111084 -2.8435016 30
-13.292018 -34.558365 -2.7976813 31
-11.102104 -45.883591 -3.8455076 36
-11.939079 -35.541908 -3.2710323 22
-14.6997 -38.222229 -3.8068795 38
-10.398445 -42.972176 -4.3716822 7
-12.007397 -35.747353 -3.9461894 29
-11.662998 -34.726055 -4.469975 16
-10.414987 -31.013742 -4.5594831 15
-8.2527437 -28.622297 -4.6689868 5
-7.5152678 -26.064573 -4.7201667 5
-6.890636 -23.89978 -4.7565322 6
-6.3499441 -22.024422 -4.7768698 8
-5.0226293 -20.738888 -4.8107781 5
-4.6894898 -19.358892 -4.8299031 6
-4.3782029 -18.069721 -4.8232541 7
-4.1237268 -17.015554 -4.837008 8
-28.339056 -116.33089 4.1832585 29
-21.135828 -62.583355 1.922419 58
-20.905136 -85.814896 1.5432523 68
-21.203949 -62.781448 0.77145457 44
-13.337703 -54.750832 0 77
-21.45973 -63.538773 -0.39095229 44
-16.395666 -56.518925 -1.0282409 53
-21.668129 -64.1595 -1.5769805 4
-12.980631 -65.45504 -1.9420259 4
-12.06445 -41.591129 -1.5130208 8
-15.457041 -39.993416 -1.7453343 36
-19.350307 -79.432381 -3.8082933 87
-11.188931 -38.572853 -2.1048474 35
-13.133376 -33.982952 -2.1179101 32
-12.864955 -52.80621 -3.4794612 52
-11.360469 -39.164215 -2.8486583 30
-13.403794 -34.686264 -2.8097363 22
-11.151516 -45.773132 -3.8377135 43
-12.01784 -35.591068 -3.2772899 23
-14.772641 -38.232529 -3.8102119 38
-10.505037 -43.116287 -4.3880162 7
-12.07435 -35.760483 -3.949728 29
-11.705466 -34.671955 -4.4653726 16
-10.467491 -31.008604 -4.5611396 14
-8.2938404 -28.596014 -4.6668191 5
-7.5479679 -26.024349 -4.715024 5
-6.9232445 -23.871948 -4.7531514 6
-6.3850775 -22.0163 -4.7772779 8
-5.0556622 -20.732868 -4.8112178 5
-4.7185111 -19.345839 -4.8284888 6
-4.4033694 -18.049656 -4.8197384 7
-4.153192 -17.020294 -4.8402038 8
-21.263638 -62.529488 1.922128 56
-21.069067 -85.706841 1.5420992 14
-21.365656 -62.82589 0.77254885 42
-13.392664 -54.480003 0 76
-21.59791 -63.508835 -0.39104557 9
-16.533644 -56.55164 -1.0294638 62
-22.180326 -65.225174 -1.6043119 53
-13.128302 -65.480637 -1.9435968 5
-12.099372 -41.387352 -1.5065262 35
-15.590746 -40.089466 -1.750947 35
-19.516151 -79.38974 -3.8082004 80
-11.250078 -38.482239 -2.1011839 41
-13.196561 -33.934898 -2.1166334 31
-12.980289 -52.798531 -3.4807389 53
-11.454226 -39.18055 -2.8515851 29
-13.574705 -34.910904 -2.83023 45
-11.234985 -45.699345 -3.8334916 44
-12.107749 -35.611092 -3.2814617 23
-14.841858 -38.173664 -3.807435 38
-10.560628 -42.953102 -4.3736501 7
-12.144098 -35.720051 -3.9480627 25
-11.762722 -34.602253 -4.4595585 16
-10.526037 -30.967859 -4.5583787 14
-8.3526049 -28.574789 -4.6661997 5
-7.6057734 -26.019831 -4.7170811 5
-6.9737778 -23.85928 -4.7535267 6
-6.4284277 -21.993483 -4.7752376 8
-5.0986075 -20.720341 -4.8107781 5
-4.7604122 -19.341576 -4.8299031 6
-4.4420886 -18.044153 -4.8207431 7
-4.1842208 -16.99284 -4.8348775 8
-28.119854 -113.61856 4.0894017 30
-21.453003 -62.762737 1.9303316 53
-21.409332 -62.631401 0.77056986 45
-13.463329 -54.398716 0 81
-21.62907 -63.274231 -0.38980973 38
-21.75836 -107.64761 -1.2785634 9
-16.630352 -56.55246 -1.0299529 42
-22.192217 -64.925369 -1.5977933 61
-13.240252 -65.504997 -1.944935 5
-11.99859 -40.804523 -1.4859951 28
-15.631155 -40.007225 -1.7484254 39
-13.672892 -55.245457 -2.6510644 41
-11.262055 -38.299732 -2.0921822 39
-13.324687 -34.105682 -2.1285884 38
-13.065126 -52.785828 -3.48125 53
-11.511253 -39.147198 -2.8504701 28
-13.571473 -34.740929 -2.8181748 45
-11.298135 -45.646809 -3.8305688 45
-12.134032 -35.505302 -3.2734659 21
-14.879342 -38.0928 -3.8016961 39
-10.641954 -42.992489 -4.3793573 6
-12.17575 -35.629406 -3.9401529 25
-11.795877 -34.521736 -4.4515643 16
-10.583634 -30.97753 -4.5622435 14
-8.389677 -28.535093 -4.6618638 5
-7.646636 -26.007853 -4.7170811 5
-7.0068145 -23.83322 -4.7505217 6
-6.4635191 -21.985235 -4.7756457 8
-5.1283336 -20.700943 -4.8081388 5
-4.7865806 -19.317095 -4.8256612 6
-4.4671664 -18.024 -4.8172274 7
-4.2118354 -16.989988 -4.8359427 8
-21.58729 -62.832951 1.9335315 54
-13.833388 -55.519844 0.99973011 57
-21.444002 -62.412342 0.7682882 47
-22.234015 -109.11794 0.64722633 9
-13.560367 -54.424076 0 80
-21.714788 -63.200459 -0.3895649 50
-15.766878 -53.306656 -0.97128916 5
-22.286377 -64.867744 -1.5972346 57
-13.339937 -65.468452 -1.9444696 5
-12.05757 -40.768375 -1.4853666 28
-15.691058 -39.975182 -1.7480999 35
-13.761104 -55.229729 -2.6513436 49
-11.302943 -38.216877 -2.0886233 37
-13.479644 -34.343052 -2.1447222 40
-13.155747 -52.796227 -3.4832945 55
-11.584048 -39.167332 -2.8532577 27
-13.583769 -34.611893 -2.8094349 42
-11.384282 -45.687035 -3.8354402 44
-12.152893 -35.378792 -3.2635579 21
-14.928247 -38.041576 -3.7989192 38
-10.702736 -42.948681 -4.3766022 7
-12.198746 -35.51429 -3.9295371 26
-11.841706 -34.478756 -4.4484148 16
-10.643862 -30.994589 -4.5672126 14
-8.4356098 -28.525669 -4.6624832 5
-7.6824508 -25.978804 -4.713995 5
-7.0470281 -23.831602 -4.7523999 6
-6.4963799 -21.969423 -4.7744217 8
-5.1646214 -20.708006 -4.8116579 5
-4.8220925 -19.330296 -4.8308454 6
-4.498754 -18.030109 -4.8207431 7
-4.2371178 -16.977739 -4.8343453 8
-21.642378 -62.566547 1.9267243 53
-16.929817 -82.206085 1.9530336 27
-13.746827 -54.683979 0.98519516 64
-21.616514 -62.488251 0.76977825 48
-16.932501 -82.219116 0.48788691 75
-13.637264 -54.248142 0 78
-21.846453 -63.15295 -0.38955325 69
-16.934059 -82.226685 -0.97736204 77
-16.795248 -56.349312 -1.0273674 59
-22.62808 -65.416145 -1.6119014 19
-16.938524 -82.248367 -2.4438958 39
-12.138361 -40.727707 -1.4848078 28
-15.881919 -40.213593 -1.7599763 37
-16.233698 -64.576584 -3.1016717 47
-11.425744 -38.336674 -2.0964737 38
-13.553741 -34.320316 -2.1450703 36
-13.265808 -52.766621 -3.4831667 56
-11.187377 -37.536884 -2.7361836 13
-13.630594 -34.518448 -2.8041608 40
-11.467307 -45.612827 -3.8312182 45
-12.197659 -35.268524 -3.2557356 21
-14.99765 -37.984295 -3.7963276 39
-10.768398 -42.829662 -4.3667622 7
-12.231492 -35.368351 -3.9162152 27
-11.89313 -34.393841 -4.4406629 16
-10.699043 -30.944147 -4.5630717 14
-8.4964638 -28.511726 -4.6631026 5
-7.7424707 -25.981539 -4.7174239 5
-7.0952425 -23.811144 -4.7512732 6
-6.5429373 -21.957645 -4.7748294 8
-5.2060766 -20.689575 -4.8098984 5
-4.8616185 -19.316385 -4.8299031 6
-4.5336704 -18.009384 -4.8177299 7
-4.2731371 -16.970697 -4.8348775 8
-21.739317 -62.528698 1.926608 54
-17.060144 -82.185265 1.9531732 5
-13.837123 -54.679764 0.98550963 69
-21.771126 -62.616669 0.77178055 49
-13.702344 -54.14716 0 74
-21.904905 -63.001434 -0.38883039 66
-16.93025 -56.478016 -1.0301975 62
-22.588326 -64.970703 -1.6017976 48
-13.588334 -65.46022 -1.9456913 5
-12.227572 -40.792831 -1.4878806 28
-15.952436 -40.207172 -1.7607898 37
-13.622316 -53.830921 -2.5865722 41
-11.5043 -38.379898 -2.0998232 42
-13.565666 -34.193199 -2.1384544 36
-13.356023 -52.774742 -3.4850833 48
-11.236588 -37.486774 -2.7338145 16
-13.656118 -34.424694 -2.7982841 39
-11.515466 -45.501999 -3.8234239 45
-12.178465 -35.034779 -3.2359197 20
-15.068311 -37.988457 -3.7991045 38
-10.839081 -42.826199 -4.3681397 6
-12.289645 -35.356609 -3.9170477 29
-11.936062 -34.343235 -4.4365449 16
-10.749588 -30.932915 -4.5639 14
-8.5367012 -28.483204 -4.660625 5
-7.7781816 -25.952358 -4.7143378 5
-7.1281247 -23.784916 -4.7482677 6
-6.576858 -21.945465 -4.7744217 8
-5.2371321 -20.675699 -4.8085785 5
-4.8876586 -19.291767 -4.8256612 6
-4.561954 -18.002241 -4.8177299 7
-4.297895 -16.95649 -4.8327475 8
-27.748396 -108.93279 3.9274571 26
-21.919943 -62.730381 1.9338806 60
-13.905226 -54.5882 0.9842518 66
-21.874075 -62.595608 0.77194351 48
-13.769608 -54.055798 0 77
-21.991964 -62.932964 -0.38862056 68
-21.918039 -104.76045 -1.246015 12
-16.962378 -56.263721 -1.0267735 41
-22.762907 -65.142769 -1.6069193 57
-13.694826 -65.456413 -1.9462149 5
-12.295096 -40.785057 -1.4882996 28
-15.990418 -40.11895 -1.758024 53
-11.721892 -46.017017 -2.2119966 38
-11.648161 -38.639057 -2.1150007 41
-13.606054 -34.138462 -2.1363652 34
-11.722765 -46.017082 -3.0400405 53
-11.784938 -39.09277 -2.852282 22
-13.699101 -34.375412 -2.7960236 37
-11.595784 -45.518627 -3.8263469 46
-12.228882 -35.002438 -3.2347028 19
-15.158925 -38.042439 -3.8068795 39
-10.872434 -42.676041 -4.3545604 5
-12.329424 -35.292194 -3.9120519 27
-11.976245 -34.285088 -4.4314575 16
-10.808615 -30.945913 -4.5683169 14
-8.5842838 -28.479218 -4.6621737 5
-7.8217812 -25.949541 -4.7160525 5
-7.1694455 -23.786856 -4.7508974 6
-6.612452 -21.938856 -4.7752376 8
-5.2720127 -20.676899 -4.8107781 5
-4.9213181 -19.297249 -4.8289604 6
-4.5921402 -18.002556 -4.8197384 7
-4.3254781 -16.953453 -4.8338127 8
-27.960566 -108.81248 3.9252224 27
-22.101696 -62.82766 1.9383024 57
-13.989664 -54.442749 0.98215538 69
-22.096716 -62.810001 0.77515644 46
-13.89872 -54.088829 0 72
-22.098501 -62.815075 -0.38817751 69
-22.285486 -105.41479 -1.2543499 11
-17.022058 -56.036736 -1.0232794 66
-22.897301 -65.089294 -1.6067797 62
-13.836023 -65.447144 -1.9467968 5
-12.410116 -40.856754 -1.4918611 29
-16.073664 -40.083515 -1.7579427 50
-11.819736 -45.998169 -2.2122757 30
-11.777241 -38.773193 -2.1236885 35
-13.696101 -34.156219 -2.139267 27
-13.558801 -52.762165 -3.4875112 54
-11.865047 -39.062275 -2.8518639 24
-13.762903 -34.326283 -2.7943661 32
-11.698534 -45.523201 -3.8287826 47
-12.288942 -34.939159 -3.2312264 18
-15.256352 -38.054966 -3.8113227 40
-10.912251 -42.460411 -4.3348808 22
-12.362394 -35.149952 -3.8991463 25
-12.029584 -34.207489 -4.4246745 16
-10.852377 -30.863409 -4.5594831 14
-8.6358728 -28.434708 -4.6578379 5
-7.8692412 -25.910479 -4.7119379 5
-7.2152529 -23.758629 -4.7482677 7
-6.6538343 -21.909971 -4.7719731 8
-5.311419 -20.650696 -4.8072591 5
-4.9568806 -19.268076 -4.8242474 6
-4.6269398 -17.981649 -4.8167253 7
-4.3604951 -16.94249 -4.8332801 8
-28.125948 -108.74714 3.9244545 27
-22.204357 -62.804176 1.9386514 57
-14.116725 -54.581394 0.98505539 64
-22.204016 -62.799725 0.77545911 49
-13.972648 -54.02433 0 75
-22.197144 -62.780285 -0.38817751 72
-22.156008 -103.99483 -1.2378662 12
-17.014246 -55.696289 -1.0175494 70
-22.964857 -64.955223 -1.6043584 51
-13.931728 -65.39209 -1.9458077 5
-12.492379 -40.896469 -1.4940259 27
-16.121674 -40.021145 -1.7563157 42
-11.033544 -42.660477 -2.0525811 15
-11.83288 -38.737457 -2.1227465 35
-14.105584 -35.018082 -2.1946318 29
-13.642162 -52.742733 -3.487639 59
-11.918232 -39.016876 -2.8499126 21
-13.72069 -34.065987 -2.7749274 35
-11.778014 -45.535645 -3.8313806 47
-12.375684 -35.009979 -3.2395699 18
-15.369674 -38.163956 -3.8246515 40
-10.872767 -42.032795 -4.2929626 4
-12.395054 -35.066727 -3.8920691 25
-12.069409 -34.149242 -4.4195876 16
-10.908104 -30.866869 -4.5625196 14
-8.6782188 -28.413549 -4.656599 5
-7.9133854 -25.909391 -4.713995 5
-7.2519903 -23.745388 -4.7478919 7
-6.6853828 -21.890129 -4.7699332 8
-5.3467841 -20.65366 -4.8098984 5
-4.9895768 -19.269674 -4.8266039 6
-4.6566358 -17.97998 -4.8182321 7
-4.3900037 -16.946817 -4.8364754 8
-28.289181 -108.67381 3.9234068 26
-22.217306 -62.528095 1.9312042 50
-14.168188 -54.427559 0.98267949 64
-22.271164 -62.676201 0.77436483 47
-14.026758 -53.884251 0 75
-22.272963 -62.681267 -0.38778111 66
-22.677416 -105.62778 -1.257726 10
-17.034769 -55.45158 -1.0135663 64
-23.049456 -64.870079 -1.6031479 4
-14.046179 -65.42485 -1.9474368 5
-12.548388 -40.850048 -1.4930483 29
-16.052589 -39.669746 -1.741999 40
-11.086952 -42.590893 -2.0500684 26
-11.889608 -38.705456 -2.1220136 32
-13.926161 -34.416565 -2.1583021 35
-13.730022 -52.740555 -3.4889166 60
-11.477429 -37.363647 -2.7304695 11
-13.752492 -33.990776 -2.7705574 34
-11.791271 -45.293312 -3.8125443 47
-12.383306 -34.857197 -3.2272284 19
-15.463957 -38.224686 -3.8331671 39
-10.832972 -41.609261 -4.2514381 4
-12.430812 -34.992855 -3.8860328 26
-12.113069 -34.10218 -4.4159536 17
-10.951936 -30.83663 -4.5605874 14
-8.7234201 -28.401772 -4.6569085 5
-7.9500241 -25.883745 -4.7115951 5
-7.2887039 -23.73209 -4.7475166 7
-6.7145863 -21.862757 -4.7662606 8
-5.3767605 -20.635796 -4.8076987 5
-5.0173883 -19.252409 -4.8242474 6
-4.6838965 -17.968899 -4.8172274 7
-4.4127274 -16.924976 -4.8322148 8
-28.604027 -108.94685 3.9354184 22
-22.322632 -62.409897 1.9289933 56
-14.284181 -54.405502 0.98281926 67
-22.349173 -62.480659 0.77252555 47
-14.130948 -53.821869 0 75
-22.398806 -62.619415 -0.38768786 61
-22.801098 -105.13053 -1.252371 8
-17.215313 -55.624001 -1.0173746 48
-23.131397 -64.671051 -1.5994231 37
-14.186563 -65.410919 -1.9479022 5
-12.66878 -40.936333 -1.4971684 28
-16.14242 -39.652695 -1.7427312 39
-11.15533 -42.488354 -2.0462527 29
-11.978913 -38.707184 -2.1234791 28
-13.97337 -34.326294 -2.1544719 37
-13.842479 -52.719406 -3.4894278 58
-11.531475 -37.261383 -2.724755 19
-13.655236 -33.548138 -2.7368031 35
-10.751108 -40.945847 -3.4484861 38
-12.421395 -34.733627 -3.2181895 18
-15.543981 -38.192215 -3.8331671 39
-10.859435 -41.355476 -4.2278223 21
-12.51412 -34.994839 -3.8891551 25
-12.171765 -34.041218 -4.4113507 16
-11.013828 -30.806164 -4.5594831 14
-8.7793808 -28.372114 -4.6550503 5
-8.0007229 -25.855743 -4.709538 5
-7.3325853 -23.698006 -4.7437601 7
-6.7632546 -21.857998 -4.768301 9
-5.4174891 -20.615055 -4.8054996 5
-5.0532527 -19.224939 -4.8200054 6
-4.7220125 -17.96092 -4.8177299 7
-4.4501262 -16.923155 -4.8343453 8
-22.357071 -62.197914 1.9235244 58
-14.387503 -54.450665 0.98404217 66
-22.460142 -62.481232 0.77296793 48
-14.248173 -53.923359 0 52
-22.62636 -62.94363 -0.38991466 38
-23.178846 -64.484108 -1.5956981 64
-15.105336 -69.12281 -2.0591445 13
-12.769297 -41.032803 -1.5014284 28
-16.261415 -39.766014 -1.748832 38
-11.21287 -42.436008 -2.0445776 24
-11.943558 -38.379375 -2.1065223 32
-14.014425 -34.272884 -2.1524987 36
-13.927313 -52.705315 -3.4899387 52
-11.591176 -37.247036 -2.7250338 17
-13.76075 -33.655865 -2.7473514 35
-10.780272 -40.795929 -3.4372818 39
-12.470549 -34.699074 -3.216799 19
-15.608475 -38.17881 -3.8342779 40
-10.884719 -41.188274 -4.212472 28
-12.581856 -35.010704 -3.89311 25
-12.208439 -33.975349 -4.4052949 17
-11.070242 -30.811195 -4.5627956 14
-8.823349 -28.356401 -4.6547408 5
-8.0407419 -25.841263 -4.7091951 5
-7.3727193 -23.695837 -4.7456384 7
-6.7975807 -21.847347 -4.768301 9
-5.4518595 -20.614065 -4.8072591 5
-5.0874214 -19.23201 -4.8237758 6
-4.7512097 -17.957224 -4.8187342 7
-4.4757171 -16.912416 -4.8332801 8
-22.463573 -62.18716 1.9242808 59
-14.516696 -54.592266 0.98701203 66
-22.534479 -62.380043 0.77215302 49
-18.941671 -86.029945 0.5119831 10
-14.299964 -53.77721 0 77
-22.699383 -62.836533 -0.38947165 58
-29.907797 -95.57032 -1.749711 20
-23.288261 -64.470192 -1.5962569 63
-14.391558 -65.364075 -1.947844 5
-12.88507 -41.176743 -1.507434 29
-16.436234 -40.013996 -1.7608711 38
-10.569988 -39.750061 -1.9159656 17
-12.074808 -38.587395 -2.1189783 32
-14.115277 -34.365337 -2.1596949 33
-11.13605 -41.875885 -2.7740114 27
-11.678269 -37.320179 -2.7317238 21
-13.821933 -33.654499 -2.7490089 44
-10.819751 -40.686474 -3.4294875 40
-12.552111 -34.754402 -3.223752 19
-15.663888 -38.143192 -3.8331671 40
-10.863977 -40.849915 -4.1796069 37
-12.64224 -35.005863 -3.8947752 25
-12.248306 -33.918785 -4.4004498 17
-11.103154 -30.750916 -4.5564461 15
-8.8637505 -28.329306 -4.6525731 5
-8.0772047 -25.815437 -4.7067952 5
-7.4011331 -23.656105 -4.7400036 7
-6.8307204 -21.832905 -4.7674847 9
-5.4832296 -20.601704 -4.8063793 5
-5.1166248 -19.22024 -4.8228335 6
-4.7764225 -17.938515 -4.815721 7
-4.4978127 -16.888601 -4.8284864 8
-14.84485 -55.359219 2.0024865 41
-22.595818 -62.145615 1.9244553 58
-14.640325 -54.596508 0.98764092 68
-22.714966 -62.469913 0.77385265 48
-19.074057 -85.775337 0.51070446 11
-14.400649 -53.702713 0 75
-22.844606 -62.826443 -0.38970482 45
-19.279722 -86.700211 -1.0340075 6
-17.224953 -54.640545 -1.0010228 4
-23.433483 -64.449463 -1.5969553 64
-14.481991 -65.124985 -1.9416187 3
-12.816247 -40.657837 -1.489417 35
-16.555107 -40.064442 -1.7646129 37
-10.632519 -39.65065 -1.9122431 25
-12.147193 -38.535355 -2.1175127 29
-14.133085 -34.204681 -2.1514542 21
-11.213908 -41.815842 -2.7715836 28
-11.761806 -37.312763 -2.7329781 22
-13.939603 -33.739754 -2.7583516 44
-10.877059 -40.559753 -3.4207189 39
-12.690904 -34.909672 -3.240613 17
-15.624366 -37.821339 -3.8041027 55
-10.873206 -40.542561 -4.1504807 40
-12.646892 -34.790497 -3.8737516 26
-12.31118 -33.870667 -4.397543 17
-11.179713 -30.761105 -4.5614157 14
-8.9230642 -28.31068 -4.6525731 5
-8.1318464 -25.800343 -4.7071381 5
-7.4553862 -23.65554 -4.7430086 7
-6.8752551 -21.814817 -4.7666688 9
-5.5258603 -20.588291 -4.8059397 5
-5.1553564 -19.20385 -4.8214192 6
-4.8169942 -17.93969 -4.8187342 7
-4.5386744 -16.899624 -4.8343453 8
-14.839621 -54.994263 1.9901258 69
-22.68243 -62.079998 1.9235244 50
-14.756804 -54.687351 0.9897024 62
-22.861797 -62.56752 0.77550566 47
-19.257734 -85.963844 0.51200634 11
-14.465188 -53.606651 0 75
-22.911692 -62.704071 -0.3891685 66
-19.35512 -86.39856 -1.0307714 9
-30.33703 -95.709778 -1.7542882 18
-29.988239 -82.075417 -2.0348632 11
-18.612295 -83.082695 -2.4778736 6
-12.997857 -41.009201 -1.5030345 29
-18.878647 -45.484997 -2.0046616 31
-10.683338 -39.591465 -1.9101957 24
-12.19383 -38.472435 -2.1151054 29
-15.296576 -36.8564 -2.3197541 23
-11.273338 -41.775051 -2.7700503 32
-11.775794 -37.153503 -2.7226646 24
-13.929902 -33.566772 -2.745995 42
-10.929331 -40.500278 -3.4171464 40
-12.81204 -35.071224 -3.2574739 24
-15.853958 -38.206924 -3.8453853 46
-10.861683 -40.246807 -4.1219449 46
-12.623035 -34.555721 -3.8498139 23
-12.35279 -33.819584 -4.3934245 17
-11.215787 -30.710014 -4.5564461 15
-8.9675236 -28.296629 -4.6525731 5
-8.1711731 -25.783781 -4.7064524 5
-7.4889741 -23.632565 -4.7407546 7
-6.9101048 -21.805857 -4.767077 8
-5.555141 -20.568285 -4.8033004 5
-5.1824741 -19.184469 -4.8185916 6
-4.8396134 -17.911543 -4.81321 7
-4.560688 -16.875723 -4.8295517 8
-14.908179 -54.905304 1.9877515 69
-22.839174 -62.205685 1.928528 58
-14.858932 -54.723927 0.99078554 65
-22.942127 -62.482723 0.77490032 44
-19.257141 -85.332611 0.50842619 10
-14.499588 -53.400501 0 77
-23.037043 -62.741222 -0.38962319 64
-19.4732 -86.290016 -1.0298401 49
-30.533482 -95.806808 -1.7569436 15
-30.124706 -82.048851 -2.0353754 10
-18.924973 -83.860703 -2.5019605 7
-12.914175 -40.524059 -1.4859951 40
-16.621683 -39.870213 -1.7583494 30
-10.738709 -39.549572 -1.908986 22
-12.265162 -38.487488 -2.1169894 29
-15.196957 -36.454533 -2.2959599 28
-11.387064 -41.934498 -2.7818058 21
-11.885633 -37.296539 -2.7345114 24
-13.98875 -33.559578 -2.7472007 47
-10.979353 -40.433044 -3.4129248 39
-12.922729 -35.20256 -3.2715538 26
-15.516335 -37.227974 -3.7493062 21
-10.835174 -39.89933 -4.0880952 50
-12.68484 -34.556393 -3.8521035 22
-12.399742 -33.783367 -4.3912444 17
-11.26333 -30.6905 -4.5561705 15
-9.0017624 -28.250504 -4.6473079 5
-8.2110662 -25.769037 -4.7061095 5
-7.5254908 -23.6189 -4.7403789 7
-6.9413767 -21.785648 -4.7650366 8
-5.5879545 -20.561415 -4.80374 5
-5.2171912 -19.193186 -4.8228335 6
-4.8697743 -17.911392 -4.8152189 7
-4.5922494 -16.887142 -4.8348775 8
-15.064836 -55.026257 1.9932684 69
-23.020685 -62.296482 1.9328333 52
-14.871602 -54.320446 0.98404217 74
-23.063236 -62.408276 0.7745744 47
-19.407379 -85.16729 0.50768226 11
-14.597667 -53.319862 0 76
-20.283007 -54.885075 -0.34109956 6
-19.522362 -85.671883 -1.0229485 10
-30.68762 -95.597946 -1.7542882 20
-20.524319 -55.541039 -1.3788627 4
-19.146763 -84.023598 -2.5080113 7
-13.176177 -41.048832 -1.5062469 33
-19.065325 -45.463413 -2.0067763 39
-10.816243 -39.507725 -1.9080553 27
-12.403123 -38.640472 -2.1268287 29
-14.264887 -34.017895 -2.1443739 15
-14.422775 -52.677437 -3.4964554 48
-11.969817 -37.290562 -2.7359049 24
-14.061319 -33.535725 -2.7476528 43
-11.052431 -40.367661 -3.4093523 40
-13.165608 -35.633308 -3.3141408 6
-15.664338 -37.362522 -3.7661524 78
-10.837244 -39.579006 -4.0575914 54
-12.77511 -34.578262 -3.8575156 22
-12.451208 -33.705181 -4.3844614 17
-11.321406 -30.65012 -4.5536857 15
-9.0627222 -28.237232 -4.6482372 5
-8.261405 -25.740526 -4.7040524 5
-7.5725403 -23.595606 -4.7388763 7
-6.9857926 -21.767334 -4.7642207 9
-5.6294589 -20.544022 -4.8024206 5
-5.2542949 -19.170969 -4.8200054 6
-4.9062533 -17.897419 -4.8142142 7
-4.6240392 -16.864471 -4.8311496 8
-15.146475 -54.985184 1.9926398 68
-23.016911 -61.986622 1.9243389 7
-14.896899 -54.079166 0.98009396 67
-23.182123 -62.428211 0.77527285 49
-19.496395 -84.941772 0.50651991 47
-14.690433 -53.329643 0 76
-20.367802 -54.849396 -0.34107623 40
-19.646622 -85.596275 -1.022413 47
-30.905308 -95.758957 -1.7581315 19
-20.502264 -55.214451 -1.3715526 5
-19.178097 -83.555008 -2.4949207 7
-13.272562 -41.126999 -1.5098783 27
-19.145247 -45.453667 -2.0076711 41
-10.880941 -39.500317 -1.9085206 22
-12.501835 -38.738789 -2.1333182 28
-14.72596 -34.963326 -2.2054262 16
-10.911993 -39.61034 -2.6302636 11
-11.975069 -37.106525 -2.7237794 22
-14.15423 -33.609169 -2.7554884 39
-10.606519 -38.501472 -3.2531416 25
-13.110611 -35.313725 -3.2863288 16
-16.015921 -38.033459 -3.8363142 22
-10.835965 -39.331676 -4.0339756 55
-12.909022 -34.772602 -3.8814533 29
-12.495846 -33.663246 -4.3815541 17
-11.361956 -30.61187 -4.5506492 15
-9.1046381 -28.215441 -4.6469984 5
-8.2981977 -25.716267 -4.7019949 5
-7.6053724 -23.570595 -4.7362466 7
-7.0139637 -21.7377 -4.7601404 9
-5.6560183 -20.514465 -4.7975821 5
-5.2802687 -19.147701 -4.8162351 6
-4.9302425 -17.87476 -4.8101964 7
-4.6515498 -16.860905 -4.8322148 8
-15.243504 -54.999847 1.9940366 67
-23.079309 -61.856739 1.9214299 57
-14.990374 -54.086533 0.98065299 64
-23.29344 -62.427322 0.77571523 6
-19.656376 -85.026009 0.50720572 50
-14.751749 -53.225555 0 74
-20.38262 -54.626209 -0.33988705 55
-19.753122 -85.444504 -1.0209695 11
-31.02915 -95.628502 -1.7566291 21
-20.591066 -55.187798 -1.3716923 6
-12.233919 -52.919285 -1.5807215 34
-13.332212 -41.090889 -1.5093195 18
-19.230637 -45.456665 -2.0091355 42
-11.006473 -39.71228 -1.919595 30
-12.576231 -38.760899 -2.1356211 28
-15.403181 -36.41124 -2.2982814 23
-10.974199 -39.593151 -2.6302636 10
-11.980388 -36.924461 -2.7117934 24
-14.282369 -33.76506 -2.7701054 33
-10.616402 -38.302273 -3.2377155 33
-13.129853 -35.196018 -3.2772899 17
-15.804911 -37.368149 -3.7717061 63
-10.790873 -38.929096 -3.9944193 53
-12.949723 -34.715008 -3.8772902 31
-12.542464 -33.626835 -4.379374 17
-11.42387 -30.631105 -4.5561705 14
-9.1513872 -28.208622 -4.6482372 5
-8.3410149 -25.710697 -4.7033663 5
-7.6436 -23.562357 -4.7369981 7
-7.05233 -21.739693 -4.7629967 8
-5.6944938 -20.528116 -4.8028603 5
-5.3176141 -19.165606 -4.8228335 6
-4.9619379 -17.880053 -4.8137121 7
-4.6744199 -16.840574 -4.8284864 8
-15.314555 -54.809944 1.9883101 67
-23.190538 -61.759605 1.9199171 56
-15.137522 -54.17635 0.98285419 56
-24.797892 -66.036705 0.82120854 29
-19.886684 -85.208633 0.50854248 44
-14.862654 -53.192616 0 79
-20.493469 -54.574039 -0.33982876 53
-19.912945 -85.321152 -1.0199918 48
-31.235577 -95.582314 -1.7569785 21
-20.698172 -55.122086 -1.3711336 44
-19.480122 -83.466637 -2.4943969 8
-14.952343 -45.757568 -1.681879 29
-19.335188 -45.438354 -2.0101116 43
-11.042848 -39.52174 -1.9114985 31
-12.66669 -38.762951 -2.1371911 29
-15.540383 -36.522202 -2.3073347 28
-11.041522 -39.514332 -2.6265581 31
-12.051498 -36.880325 -2.7103996 23
-14.379601 -33.797466 -2.7752287 31
-10.654754 -38.130207 -3.2250497 35
-13.23015 -35.239323 -3.2838953 16
-15.989942 -37.586014 -3.7970681 55
-10.79846 -38.641884 -3.9672611 56
-12.953888 -34.50531 -3.8568912 29
-12.601005 -33.568893 -4.3752561 17
-11.468509 -30.555185 -4.5484405 15
-9.203083 -28.166855 -4.6445208 5
-8.3893375 -25.676313 -4.7002807 5
-7.6904917 -23.538826 -4.7354956 7
-7.090549 -21.702541 -4.7581 9
-5.7311697 -20.493597 -4.7975821 5
-5.3509364 -19.130093 -4.8167067 6
-4.9957237 -17.856569 -4.8101964 7
-4.7081218 -16.825178 -4.826889 8
-15.399009 -54.780048 1.9881006 69
-23.298813 -61.753029 1.920848 54
-15.19284 -54.046627 0.98093253 61
-23.520679 -62.337784 0.77566862 4
-20.190737 -85.901543 0.5128665 11
-14.961886 -53.22504 0 77
-20.525511 -54.39957 -0.33894268 49
-13.16939 -56.029205 -0.67006075 28
-21.177813 -64.461975 -1.1855395 9
-20.902601 -55.40192 -1.3789092 30
-19.57324 -83.274406 -2.489568 9
-13.112801 -39.915676 -1.467908 8
-15.475126 -36.209106 -1.6028994 14
-11.093561 -39.463959 -1.9095443 31
-12.706368 -38.67849 -2.1336322 29
-14.405089 -33.707035 -2.1309099 25
-11.090073 -39.448906 -2.6233637 39
-12.163589 -37.026257 -2.7225251 26
-14.409946 -33.721653 -2.7708588 33
-10.697371 -38.052013 -3.2198536 34
-13.348779 -35.386276 -3.2995396 14
-16.072435 -37.615788 -3.8026218 51
-10.815512 -38.469677 -3.9513204 51
-12.999648 -34.462589 -3.8543932 26
-12.647413 -33.532341 -4.3730755 17
-11.517888 -30.540838 -4.5489926 15
-9.2460823 -28.148609 -4.6439013 5
-8.4308891 -25.666849 -4.7009664 5
-7.7256179 -23.521118 -4.7343683 7
-7.1325736 -21.715559 -4.7634044 8
-5.769166 -20.505228 -4.8024206 5
-5.3825588 -19.127275 -4.8181205 6
-5.0253401 -17.854292 -4.8117032 7
-4.7392464 -16.834463 -4.8316822 8
-15.492109 -54.780796 1.9890084 68
-23.456728 -61.877117 1.9258516 51
-15.252685 -53.934181 0.97932529 62
-23.649763 -62.383041 0.77669305 6
-20.248253 -85.542763 0.51091373 12
-15.034589 -53.162983 0 75
-20.620152 -54.391575 -0.33909425 53
-13.257845 -56.010395 -0.670084 35
-21.263365 -64.381157 -1.184666 73
-20.757841 -54.757648 -1.3636837 26
-19.61377 -82.862259 -2.4781644 7
-13.188646 -39.934887 -1.4693745 12
-19.503065 -45.43615 -2.0127146 43
-11.080511 -39.181187 -1.8967017 31
-11.726775 -35.508377 -1.9597722 12
-14.407618 -33.56694 -2.1234815 24
-11.109115 -39.279709 -2.6132696 39
-11.663016 -35.315319 -2.5980644 16
-14.407841 -33.57069 -2.7603104 33
-10.731091 -37.943092 -3.2120593 36
-13.390929 -35.329865 -3.2962368 14
-16.12365 -37.572197 -3.8007705 47
-10.817425 -38.245804 -3.9300661 49
-13.065045 -34.471886 -3.8577237 25
-12.690221 -33.486443 -4.3696842 17
-11.567953 -30.528267 -4.5498209 14
-9.2853308 -28.119041 -4.6414237 5
-8.4668713 -25.640476 -4.6985664 5
-7.7637868 -23.512686 -4.7351198 6
-7.1599226 -21.683876 -4.7589159 9
-5.7949924 -20.473614 -4.797142 5
-5.4099503 -19.109447 -4.815764 6
-5.0554891 -17.853827 -4.8137121 7
-4.7609563 -16.810305 -4.826889 8
-21.76572 -65.445419 4.8180079 8
-15.605164 -54.742462 1.988799 64
-23.584135 -61.82225 1.9256771 49
-15.388087 -53.980965 0.98075783 49
-23.714785 -62.161469 0.77455109 46
-20.754549 -86.869598 0.51909691 9
-15.122871 -53.050594 0 76
-20.691252 -54.236153 -0.33839473 53
-13.357929 -55.910538 -0.66922259 39
-21.405731 -64.359253 -1.1850853 71
-20.795511 -54.512295 -1.3586551 50
-22.974123 -96.159782 -2.8772867 6
-15.216323 -45.752621 -1.6846026 36
-19.607687 -45.417217 -2.0136907 45
-11.144474 -39.09449 -1.8936306 33
-13.025162 -39.164211 -2.1630452 19
-14.398753 -33.353382 -2.1118746 27
-11.161261 -39.150787 -2.6062417 38
-11.849029 -35.6278 -2.6228731 20
-14.596676 -33.815094 -2.7829137 44
-10.798512 -37.878361 -3.208487 36
-15.110107 -39.615093 -3.6989884 17
-14.713943 -34.090031 -3.4516277 31
-10.870764 -38.129276 -3.920423 45
-13.118075 -34.394264 -3.8521035 26
-12.755375 -33.446808 -4.3679886 16
-11.629043 -30.496569 -4.5487165 15
-9.3417082 -28.092033 -4.6401849 5
-8.5174446 -25.613338 -4.6968522 5
-7.8092957 -23.485189 -4.7328658 7
-7.2090282 -21.679981 -4.7613645 9
-5.8378596 -20.461432 -4.797142 4
-5.445694 -19.083122 -4.8119936 6
-5.0907459 -17.835752 -4.8117032 7
-4.7977409 -16.805857 -4.8284864 8
-21.861536 -65.390335 4.8164749 66
-15.766067 -54.979187 1.9982964 82
-23.968842 -62.535557 1.9490658 45
-15.426558 -53.795258 0.9778229 63
-23.835302 -62.183899 0.77529615 47
-13.653188 -56.751789 0.33925304 4
-15.18744 -52.961411 0 77
-20.930319 -54.605091 -0.34090135 44
-13.432639 -55.835041 -0.6685707 40
-21.425003 -64.080902 -1.1805781 78
-20.856068 -54.414219 -1.3570255 43
-11.942269 -49.640068 -1.4858863 2
-15.291341 -45.73814 -1.6849518 35
-19.695698 -45.424866 -2.015399 43
-11.173378 -38.963631 -1.88814 35
-12.06329 -36.082668 -1.9938953 11
-14.477336 -33.391174 -2.1157048 27
-11.200736 -39.056465 -2.6011307 39
-12.038458 -36.008396 -2.6522808 38
-14.69023 -33.885441 -2.7905989 48
-10.84371 -37.811531 -3.2042651 34
-15.116703 -39.446194 -3.6854303 21
-14.780147 -34.096111 -3.4545896 26
-10.893332 -37.982059 -3.9070408 48
-13.17778 -34.388477 -3.8537688 24
-12.794401 -33.391506 -4.3633857 16
-11.672681 -30.467165 -4.54706 15
-9.3883295 -28.08482 -4.6414237 5
-8.5582924 -25.601797 -4.6971951 5
-7.8436856 -23.465441 -4.7313633 7
-7.2418327 -21.664917 -4.7605481 9
-5.8791428 -20.484116 -4.8046198 4
-5.477808 -19.082018 -4.8138785 6
-5.1214271 -17.837038 -4.8142142 6
-4.8214731 -16.789036 -4.8258238 8
-21.955326 -65.329437 4.8145237 69
-15.804211 -54.78727 1.9922209 53
-24.15469 -62.725433 1.9561639 42
-15.42735 -53.480839 0.97254699 60
-23.948044 -62.185574 0.77578509 40
-13.311015 -54.949799 0.32860559 29
-15.294449 -53.020119 0 77
-20.99666 -54.521755 -0.34058657 56
-13.526448 -55.839142 -0.66887337 39
-21.532005 -64.066124 -1.1809274 73
-20.879723 -54.220924 -1.3530213 49
-11.901623 -49.131622 -1.4712247 2
-15.368898 -45.731113 -1.6855803 37
-15.982922 -36.703884 -1.6295805 22
-11.178641 -38.752155 -1.8787407 35
-12.435534 -37.002705 -2.0458126 14
-14.538537 -33.388527 -2.1169817 30
-11.247135 -38.987045 -2.5976808 39
-12.025091 -35.78141 -2.6369498 27
-14.57068 -33.465534 -2.7578995 41
-10.892592 -37.75806 -3.2011797 35
-15.163612 -39.38335 -3.6817799 24
-14.846405 -34.102066 -3.4575515 28
-10.963464 -38.001236 -3.91078 47
-13.125292 -34.091145 -3.8227539 23
-12.843984 -33.363956 -4.3624167 16
-11.734044 -30.483915 -4.5523052 14
-9.429287 -28.060673 -4.6398754 5
-8.5934763 -25.57338 -4.6944523 5
-7.8774066 -23.443781 -4.729485 7
-7.2721128 -21.642378 -4.7581 9
-5.9091473 -20.467358 -4.8028603 4
-5.5040007 -19.060318 -4.8105793 6
-5.142993 -17.806652 -4.8081875 6
-4.8478394 -16.781441 -4.8258238 8
-21.79356 -64.512329 4.7568231 86
-16.140347 -55.624279 2.0235763 41
-24.289257 -62.780636 1.9590729 8
-28.367903 -116.30806 2.7857609 15
-15.507438 -53.443096 0.97230244 63
-21.633982 -55.914627 0.69797605 24
-13.361297 -54.781155 0.32772219 37
-15.405581 -53.092068 0 70
-21.015162 -54.315239 -0.3395023 29
-13.57339 -55.650734 -0.66687107 39
-21.628773 -64.020851 -1.1807178 51
-20.899935 -54.020229 -1.3488307 41
-13.061691 -53.552776 -1.6042266 122
-15.443273 -45.714493 -1.6858596 37
-17.937429 -41.016171 -1.8222864 28
-11.201641 -38.60408 -1.8724124 32
-12.443143 -36.833641 -2.0375435 18
-14.641365 -33.4809 -2.124294 28
-11.304468 -38.95591 -2.5967865 38
-12.032752 -35.61882 -2.6263573 28
-14.600059 -33.389618 -2.7535295 39
-10.939113 -37.696873 -3.1974449 36
-15.206048 -39.309311 -3.6770866 26
-16.372637 -37.44698 -3.7992895 35
-11.018149 -37.966763 -3.9090087 48
-13.181696 -34.077908 -3.8235865 23
-12.881336 -33.304859 -4.3573294 16
-11.76548 -30.422955 -4.5459557 14
-9.4720879 -28.042084 -4.639256 5
-8.6348972 -25.563583 -4.695138 5
-7.9142227 -23.431377 -4.729485 7
-7.3060999 -21.630928 -4.7581 9
-5.9402018 -20.454304 -4.801981 4
-5.5366445 -19.060982 -4.8129358 6
-5.1741977 -17.809706 -4.8112011 6
-4.8693519 -16.757145 -4.8210301 8
-21.759005 -63.967888 4.7200284 90
-24.600554 -63.191643 1.9735019 7
-15.616529 -53.400902 0.97212774 63
-21.454294 -55.106976 0.68845367 30
-13.409562 -54.483112 0.32610649 38
-15.539759 -53.13839 0 69
-21.033821 -54.026962 -0.33797503 35
-13.644032 -55.43576 -0.66463602 40
-21.710003 -63.820175 -1.1778527 79
-20.970232 -53.866405 -1.3460836 46
-13.187679 -53.5816 -1.6059139 116
-15.544132 -45.697186 -1.6864183 38
-14.724683 -33.478653 -1.4887726 12
-11.286394 -38.593956 -1.8730639 31
-11.956186 -35.149216 -1.9457462 23
-14.729943 -33.492199 -2.1269636 28
-11.424129 -39.062416 -2.6054752 37
-12.009023 -35.304546 -2.6050332 27
-14.633028 -33.274986 -2.7465978 36
-11.011886 -37.652832 -3.1956589 38
-15.300631 -39.308941 -3.6800416 26
-16.453436 -37.418076 -3.799845 38
-11.104906 -37.968437 -3.9115672 48
-13.325189 -34.235592 -3.8444018 25
-12.943141 -33.257454 -4.3546648 16
-11.82989 -30.400091 -4.5462317 15
-9.5276175 -28.012831 -4.6377077 5
-8.6858807 -25.537981 -4.6937666 5
-7.9594846 -23.403591 -4.727231 7
-7.3476048 -21.604458 -4.755652 9
-5.9769998 -20.421221 -4.797142 4
-5.572185 -19.03442 -4.8091655 6
-5.205503 -17.778393 -4.8056765 6
-4.9049792 -16.74876 -4.8215628 8
-21.807177 -63.780716 4.7087393 94
-21.505997 -54.98698 1.7183198 22
-28.15296 -113.61626 2.7237413 14
-15.644526 -53.186382 0.9686687 64
-21.506592 -54.985672 0.68735939 28
-13.49176 -54.448391 0.32602513 38
-15.880003 -53.986931 0 47
-21.093164 -53.928665 -0.33756697 38
-13.700309 -55.290024 -0.66314596 41
-21.783697 -63.708416 -1.1764202 78
-21.06283 -53.853886 -1.3465958 33
-13.280003 -53.593807 -1.606903 81
-15.63206 -45.719994 -1.6881641 36
-16.148237 -36.559372 -1.6268961 22
-11.345312 -38.570431 -1.8727847 29
-12.001691 -35.102043 -1.9441761 26
-14.77124 -33.443447 -2.1253386 29
-11.12217 -37.809383 -2.5230598 15
-12.088992 -35.35738 -2.6103294 29
-14.642576 -33.155273 -2.7386115 34
-11.072704 -37.641224 -3.196146 38
-15.300679 -39.127132 -3.6652665 26
-16.463924 -37.282883 -3.7887375 40
-11.165656 -37.954765 -3.9119608 48
-13.34273 -34.12199 -3.8339942 23
-12.994643 -33.235233 -4.3544226 15
-11.876185 -30.377783 -4.5456796 14
-9.565855 -27.981003 -4.6349201 5
-8.7227974 -25.514982 -4.6920519 5
-7.994966 -23.387342 -4.72648 7
-7.3827987 -21.596594 -4.7564678 9
-6.0074167 -20.406191 -4.7958226 4
-5.6053715 -19.036831 -4.8119936 6
-5.2350636 -17.775764 -4.8071833 6
-4.9334607 -16.74843 -4.8236933 8
-21.847031 -63.570908 4.6957774 92
-31.666271 -107.03387 3.8998029 26
-21.586494 -54.938248 1.7178543 40
-27.840183 -111.60279 2.6765172 10
-15.734859 -53.184753 0.96908796 65
-21.440807 -54.564667 0.68251669 16
-13.579207 -54.434895 0.32607162 36
-15.919962 -53.81041 0 34
-21.204912 -53.964336 -0.33799833 57
-13.729055 -55.035587 -0.66035205 37
-21.866844 -63.62495 -1.1755118 78
-21.121075 -53.753738 -1.3449196 51
-13.362236 -53.565121 -1.6066703 38
-15.704507 -45.697273 -1.688234 39
-18.175442 -40.974663 -1.8246454 38
-11.43649 -38.656013 -1.8778101 26
-12.154832 -35.368362 -1.9599816 25
-14.835089 -33.445759 -2.1269636 28
-11.171355 -37.757416 -2.5207598 28
-12.153595 -35.364761 -2.6122806 31
-14.689787 -33.121292 -2.7377071 33
-11.126162 -37.604671 -3.1945221 38
-15.381063 -39.151268 -3.669786 28
-16.423168 -37.033062 -3.7659674 56
-11.232603 -37.96199 -3.9145191 52
-13.407948 -34.130611 -3.8373246 23
-13.034493 -33.183369 -4.3503041 16
-11.929682 -30.373838 -4.5478883 15
-9.6136484 -27.977154 -4.6367784 6
-8.7660675 -25.510567 -4.6937666 5
-8.0278625 -23.363609 -4.724226 7
-7.4141684 -21.577564 -4.7548356 9
-6.0372477 -20.389248 -4.7940631 4
-5.6325078 -19.018684 -4.8096371 6
-5.2618794 -17.763807 -4.806179 6
-4.9570251 -16.731419 -4.8210301 8
-21.897274 -63.285557 4.6780772 93
-31.890371 -106.96731 3.8998029 27
-21.69857 -54.885479 1.7176216 37
-15.858212 -53.191925 0.96982169 68
-21.160923 -53.522797 0.67003745 28
-13.653158 -54.247295 0.32511845 39
-15.865775 -53.217293 0 9
-21.21347 -53.655704 -0.33634278 45
-13.624153 -54.132053 -0.6498518 40
-21.969973 -63.492085 -1.1739045 77
-21.330645 -53.954826 -1.3510656 44
-11.723673 -46.580986 -1.3979166 19
-15.812598 -45.700172 -1.6895608 39
-18.254705 -40.921906 -1.8239946 32
-11.54882 -38.737274 -1.8829285 28
-12.377783 -35.77317 -1.9838468 20
-14.922186 -33.452904 -2.129401 27
-11.245277 -37.716724 -2.5196099 30
-12.161093 -35.146912 -2.5980644 29
-14.722568 -33.008492 -2.7309263 31
-11.210592 -37.600388 -3.196146 37
-15.442519 -39.067085 -3.6649189 28
-16.733486 -37.520561 -3.8190978 42
-11.263746 -37.77626 -3.8977911 51
-13.485983 -34.119106 -3.8391981 22
-13.102505 -33.152302 -4.3498197 16
-11.979438 -30.313786 -4.5426431 15
-9.6722221 -27.956959 -4.6367784 6
-8.8169003 -25.484703 -4.6923947 5
-8.0767784 -23.346745 -4.724226 7
-7.4561434 -21.552736 -4.7527957 9
-6.0816112 -20.382168 -4.795383 5
-5.672328 -19.006845 -4.8096371 6
-5.2990723 -17.752748 -4.806179 6
-4.9926081 -16.722847 -4.8215628 8
-21.982893 -63.21151 4.6751499 89
-32.038265 -106.85007 3.8973589 27
-21.906513 -55.157894 1.7272214 42
-14.062402 -55.504818 1.332373 3
-15.957828 -53.220581 0.97079998 63
-21.258997 -53.524803 0.67047983 27
-13.714776 -54.132725 0.32456052 37
-15.949349 -53.192307 0 5
-21.211351 -53.404846 -0.33497873 52
-13.716043 -54.137726 -0.65017778 32
-22.040777 -63.37439 -1.1723672 75
-21.46039 -54.034611 -1.3539059 23
-11.6677 -46.052837 -1.382615 23
-15.891586 -45.696045 -1.690329 39
-16.633551 -37.130856 -1.6561803 26
-11.610801 -38.722916 -1.8831146 29
-12.382789 -35.606541 -1.9756824 22
-15.012262 -33.513245 -2.1347401 29
-11.307948 -37.710484 -2.5203764 30
-12.108809 -34.818718 -2.5752072 29
-14.780921 -32.999886 -2.7321317 30
-11.269068 -37.580822 -3.1959836 38
-15.4671 -38.950191 -3.6562276 27
-16.454601 -36.739983 -3.7422714 83
-11.332789 -37.790928 -3.9011369 52
-13.879444 -34.953838 -3.9355733 33
-13.147238 -33.113228 -4.3473973 16
-12.028502 -30.298613 -4.5431952 15
-9.7187214 -27.949196 -4.6380172 5
-8.854332 -25.463377 -4.6910233 5
-8.1127958 -23.332172 -4.7238503 7
-7.4964194 -21.559492 -4.756876 9
-6.1153021 -20.378195 -4.7967024 5
-5.7016182 -18.99605 -4.8091655 6
-5.3275084 -17.746258 -4.8066812 6
-5.0216417 -16.724216 -4.8242259 8
-22.081499 -63.175018 4.6750107 92
-32.308784 -107.14025 3.9097893 25
-21.882004 -54.844891 1.7184943 39
-14.114985 -55.347038 1.3291162 35
-15.990023 -53.025055 0.96769035 64
-21.3512 -53.511776 0.67073596 33
-13.800285 -54.113052 0.32457215 37
-16.001703 -53.063786 0 56
-21.255932 -53.27301 -0.33436081 51
-14.034822 -55.032711 -0.66119021 35
-22.115223 -63.26796 -1.1710395 76
-22.588493 -56.615635 -1.419464 6
-11.733109 -46.007336 -1.3818004 29
-15.967962 -45.684231 -1.6908178 39
-18.240524 -40.547253 -1.8098407 38
-11.677381 -38.723755 -1.8840452 30
-12.442657 -35.598358 -1.9763104 26
-15.093554 -33.553352 -2.1388025 29
-11.345847 -37.621971 -2.5156488 32
-12.160196 -34.790237 -2.5745103 32
-14.81474 -32.936615 -2.7288167 31
-11.363194 -37.679493 -3.2058887 39
-15.527525 -38.923996 -3.6560538 25
-16.541698 -36.779472 -3.7489359 13
-11.392138 -37.773083 -3.9011369 53
-14.002136 -35.101971 -3.9547236 32
-13.193352 -33.077785 -4.3454595 16
-12.076814 -30.281521 -4.5434713 14
-9.7587004 -27.922705 -4.6361589 5
-8.8930187 -25.445717 -4.6903377 5
-8.149436 -23.319401 -4.7238503 7
-7.5251083 -21.532904 -4.7536116 9
-6.1427951 -20.353621 -4.7931833 5
-5.7331352 -18.992653 -4.8105793 5
-5.3503418 -17.721188 -4.8021612 7
-5.0456767 -16.708925 -4.8220954 8
-22.239592 -63.202034 4.6804461 97
-21.87841 -54.503956 1.7092434 39
-14.193012 -55.170189 1.3255802 38
-16.071976 -52.895782 0.9659434 65
-21.415546 -53.348164 0.66924584 36
-13.867746 -53.905838 0.32350275 37
-16.130829 -53.089478 0 54
-21.359264 -53.207958 -0.33423257 56
