# .PCD v0.7 - Point Cloud Data file format
VERSION 0.7
FIELDS x y z
SIZE 4 4 4
TYPE F F F
COUNT 1 1 1
WIDTH 1652
HEIGHT 1
VIEWPOINT 0 0 0 1 0 0 0
POINTS 1652
DATA ascii
-333.3663 933.15591 126.85302
-288.36063 816.49071 110.99322
-302.3825 866.21625 117.7525
-303.74772 880.41579 119.68494
-302.4378 887.13765 120.6009
-286.523 850.61855 115.6409
0 0 0
-330.41789 1005.30606 136.66136
-281.37942 866.8927 117.85256
-317.52181 990.6756 134.68111
-304.86442 963.4645 130.97207
-269.34626 862.34349 117.22748
-441.97756 1433.80958 194.91979
-288.86858 949.67873 129.09897
-296.70582 988.72098 134.41392
-270.47345 913.74763 124.21886
-275.92491 945.19698 128.4942
0 0 0
-284.48468 1002.5489 136.29368
-264.12234 944.3961 128.38209
-267.91848 972.12996 132.15915
-238.2366 877.44062 119.28336
-257.94305 964.53481 131.12147
-243.65285 925.2227 125.7781
-239.61366 924.21036 125.64261
-231.6573 907.81425 123.40755
-232.51635 925.99191 125.88336
-249.86474 1011.55597 137.51284
-211.79715 871.84985 118.5188
-200.13939 837.93325 113.90852
-214.57126 913.96864 124.2464
-229.73773 995.91507 135.39092
-189.94236 838.22427 113.94981
-189.26628 850.55556 115.62366
-215.55926 986.86074 134.16154
-200.07288 933.39738 126.89451
-213.55659 1015.64235 138.06789
-195.56609 948.50091 128.94446
-173.38588 857.91397 116.62664
-165.77694 837.18474 113.80698
-184.75688 952.64532 129.50212
-166.20712 875.4462 119.00962
-182.30728 981.33157 133.40736
-175.58538 966.43311 131.37687
-168.64036 949.54097 129.08791
-160.13025 922.8492 125.4582
-171.70646 1013.36677 137.76545
-157.97113 955.35945 129.87261
-153.5394 952.05131 129.42846
-154.9773 985.93356 134.0317
-155.85 1017.88752 138.37402
-146.8104 985.1613 133.9263
-126.09592 869.98734 118.27258
-121.78944 864.58697 117.53421
-134.4343 982.89191 133.61348
-135.44404 1020.74477 138.76884
-126.04074 979.99118 133.21914
-126.99102 1019.81691 138.63653
-118.62851 984.8839 133.89376
-114.42546 983.37564 133.68618
-109.57487 975.94671 132.67508
-103.5086 956.66804 130.05574
-95.53922 917.64015 124.74469
-89.067405 890.40315 121.04715
-89.44047 932.1858 126.7245
-82.222271 895.03667 121.67405
-79.982565 911.14868 123.8666
-82.23874 982.5625 133.5688
-75.421514 947.31938 128.78411
-72.471556 959.46452 130.43443
-70.833866 991.37523 134.77311
-63.474565 942.22157 128.09273
-63.523775 1003.7741 136.4566
-54.051803 913.02237 124.11581
-52.735345 956.75947 130.0615
-47.526146 931.23242 126.59273
-44.662475 951.21702 129.31216
-42.568323 992.95997 134.98374
-39.441935 1016.88405 138.24447
-33.16512 955.6395 129.9083
-28.478931 930.01377 126.42696
-26.524592 999.45486 135.87194
-21.91231 975.7804 132.64995
-16.436406 894.62016 121.61604
-13.37931 936.29655 127.28205
-9.335222 914.54532 124.3281
-6.2079732 1013.66001 137.7981
-2.1300084 1043.39664 141.8391
2.0976436 1027.54256 139.6839
6.1351524 1001.76957 136.1817
8.95089 876.8934 119.2095
13.66247 956.11235 129.97585
16.509214 898.58304 122.15476
20.844502 928.22968 126.18579
24.789584 934.07922 126.98438
28.236299 922.09033 125.34984
30.209472 870.4737 118.33098
37.828925 975.29775 132.59085
39.767217 927.62063 126.10146
43.361175 923.50206 125.54448
46.516026 911.44002 123.90213
54.916745 996.33587 135.4415
56.511365 954.56835 129.76355
55.387725 875.2119 118.9794
55.748385 827.53353 112.50117
65.607838 918.23289 124.82973
74.710636 989.10812 134.46433
74.32047 933.4899 126.90405
75.62658 903.5625 122.8296
81.888975 932.8662 126.819
84.941861 924.64097 125.69855
81.111622 845.37908 114.9237
93.604615 935.76145 127.21345
106.82742 1026.06165 139.48359
106.9198 988.19572 134.34182
102.05611 908.97963 123.57124
116.48718 1001.09412 136.09494
112.94003 937.6567 127.47328
105.43806 846.73323 115.10709
126.04074 979.99118 133.21914
129.44748 975.55299 132.62508
143.0295 1045.73415 142.1562
125.66016 892.06533 121.26969
134.62552 928.83654 126.27298
244.39184 1639.97498 222.94398
149.55 976.74096 132.78046
154.0539 980.05908 133.2331
157.6422 977.49153 132.88698
165.73225 1002.29625 136.25325
161.4405 952.77975 129.52875
172.66955 995.11464 135.28244
155.81468 877.32511 119.27033
181.96386 1001.54067 136.14939
185.20392 996.92373 135.52704
182.1068 959.193 130.3943
168.14952 867.01428 117.86148
179.63982 907.19322 123.32394
186.34564 922.03891 125.34392
181.95453 882.48447 119.96982
176.43405 839.09325 114.06755
210.8764 983.7989 133.74655
204.1361 934.5639 127.0519
1.50724 6.77348 0.92078
206.15428 909.76821 123.67563
214.58529 930.22911 126.46116
219.10286 933.27104 126.8704
234.68589 982.57075 133.57052
232.39179 956.62641 130.04328
210.3999 851.78595 115.7934
232.03345 924.06877 125.62192
245.87542 963.53195 130.98177
269.47206 1039.37676 141.29901
252.23751 957.82122 130.20966
250.25855 935.79991 127.21517
254.8638 938.67966 127.60848
274.76792 996.98284 135.53785
262.51998 938.6667 127.60323
275.28156 970.1163 131.88456
269.61724 936.68104 127.33782
274.25769 939.48582 127.7178
290.17495 980.30573 133.26706
294.42566 981.12274 133.38096
293.48586 964.85841 131.16249
291.82788 946.71234 128.70117
295.36434 945.64341 128.55132
298.28246 942.6635 128.14441
281.19901 877.3476 119.27431
298.5255 919.7175 125.034
324.22449 986.46246 134.09976
306.56406 921.28795 125.24347
325.1482 965.28757 131.23006
322.92036 947.21893 128.76858
298.57204 865.41403 117.64558
343.5719 984.20895 133.7923
311.48233 881.95961 119.89302
353.3883 989.20131 134.47182
310.45989 859.19169 116.80122
337.39586 923.30479 125.52006
333.83951 903.49608 122.82179
349.59012 935.76482 127.21431
304.57581 806.45807 109.63304
320.8966 840.6076 114.27293
331.04097 857.98485 116.63514
351.39 901.1925 122.50875
340.75879 864.88848 117.57476
355.56486 893.19513 121.42539
372.04095 925.09245 125.75565
347.65402 855.78451 116.33776
363.46725 885.78315 120.4127
336.93582 813.03307 110.52907
293.03325 700.21215 95.18895
338.72371 801.56923 108.96725
388.2318 909.93199 123.69779
311.30008 722.70055 98.24477
476.8185 1096.56205 149.07055
384.06366 875.04921 118.95939
313.11126 706.80228 96.08186
353.59992 790.91181 107.51868
368.53236 816.86283 111.05094
383.64027 842.72292 114.56307
373.23925 812.58487 110.4626
336.75303 726.69543 98.79294
380.3896 813.6855 110.61815
345.0221 731.63365 99.4626
378.16358 795.03584 108.08095
343.03467 715.04108 97.20634
357.5121 738.93277 100.45569
385.2051 789.5085 107.3328
356.2566 724.12284 98.43804
318.94422 642.93498 87.40347
309.50285 618.81751 84.1279
454.55832 901.4688 122.5485
0 0 0
387.0756 755.41815 102.69405
393.16554 761.23504 103.48233
361.70127 694.81707 94.45908
-406.02915 779.97705 99.97845
-468.25038 906.62533 116.20505
0 0 0
0 0 0
-398.56212 790.42392 101.31561
-463.51963 926.75765 118.78727
-426.92083 860.61066 110.30569
-407.42224 828.11989 106.14754
-430.81829 883.00887 113.18116
-509.22905 1052.52048 134.90774
-443.00008 923.41515 118.3588
0 0 0
-463.94055 983.8137 126.1002
-410.15325 877.35375 112.4565
-421.39876 909.35116 116.55968
-444.8658 968.51126 124.13537
-441.58242 969.992 124.32851
-368.02246 815.73837 104.56105
0 0 0
-352.79956 796.39493 102.07403
-370.02132 843.05088 108.06039
-424.14813 975.44538 125.02854
-368.13793 854.65644 109.54467
-391.6887 918.01725 117.6654
-417.88217 988.87718 126.74725
-359.99382 860.2179 110.25738
-356.98902 861.44799 110.41701
-430.87671 1050.08553 134.59968
-388.32625 955.88 122.51888
-367.17541 912.99839 117.02719
-338.98098 851.53211 109.14475
-349.06641 885.96256 113.55519
-361.79213 927.88533 118.93574
-338.47674 877.26292 112.44678
-384.2202 1006.45685 129.0065
-375.0052 992.94065 127.27514
0 0 0
-359.6054 973.21895 124.74165
-339.73772 929.72244 119.17141
-333.00393 921.59151 118.12416
-324.314 907.80732 116.35493
-350.11599 991.34049 127.06941
-306.57703 878.24073 112.57118
-302.07741 875.58318 112.23057
-336.66683 987.54062 126.58244
-329.88249 979.34157 125.52378
-287.40614 863.73147 110.70941
-314.59925 957.1856 122.68305
-319.02486 982.87056 125.98182
-303.26296 946.21527 121.28116
-308.73295 975.70747 125.0603
-289.12361 925.66842 118.64688
-301.45409 977.94474 125.34898
-309.93605 1018.93153 130.60556
-294.70457 982.03178 125.87105
-300.59524 1015.47457 130.16333
-246.70131 845.08925 108.32044
-263.28386 914.66543 117.23775
-256.57071 904.18613 115.89386
-265.97345 951.01105 121.89745
-271.32672 984.52662 126.19656
-255.61932 941.47808 120.67308
0 0 0
-265.11377 1006.71481 129.03749
-235.85982 909.71661 116.60411
-236.29131 925.98228 118.68975
-213.40344 849.86984 108.93571
-224.88165 910.40355 116.6886
-242.4591 998.04015 127.926
-233.06583 975.78687 125.07081
-200.25557 853.01332 109.33306
-211.22835 915.6543 117.36171
-197.58029 871.93374 111.76004
-224.78736 1010.21851 129.48845
-211.53825 968.42061 124.12575
-216.90228 1011.9186 129.70748
-192.53231 915.64357 117.36578
-210.58887 1021.33027 130.91256
-205.39475 1016.3043 130.2697
-180.97347 913.91931 117.14025
-185.3109 955.52343 122.47785
-170.44026 897.74475 115.06974
-180.30395 970.5827 124.40485
-169.02408 930.28048 119.23936
-142.78227 803.93932 103.04783
-178.27062 1027.36301 131.67979
-153.97246 908.71993 116.47802
-163.95405 991.53453 127.09098
-142.00604 880.50757 112.86046
-158.51745 1008.46116 129.26298
-134.3753 877.6728 112.49255
-121.22467 813.43138 104.26333
-144.7191 998.48043 127.97928
-142.10599 1008.86318 129.30957
-137.801 1007.452 129.1295
-137.40597 1035.5202 132.73065
-127.42578 990.79737 126.99277
-114.62165 920.414 117.9783
-115.41726 958.28824 122.83152
-113.16942 972.53058 124.6581
-113.447 1010.43475 129.50875
0 0 0
-96.0432 922.5084 118.2401
-99.425138 993.94928 127.39557
-93.319885 972.6087 124.6616
-92.104145 1002.60685 128.50915
-89.950417 1024.71155 131.34642
-73.220475 874.8048 112.1295
-72.820625 914.64925 117.2345
-72.394959 958.44759 122.84982
-62.139147 869.6826 111.47478
-61.6716 915.454 117.33625
-51.6846 816.7005 104.68425
-57.85794 977.30766 125.27004
-55.19049 1001.30451 128.34645
-46.967453 920.28598 117.95513
-41.823278 890.73819 114.173
-38.87286 906.75585 116.2233
-35.5607 916.81375 117.512
-33.060322 952.6393 122.10466
-28.567819 932.93563 119.58228
-26.235058 988.56538 126.70873
-21.755836 968.83228 124.1767
-18.129895 986.7614 126.47445
-12.628143 883.68489 113.26392
-9.324204 913.47543 117.08673
-6.0076805 980.95943 125.73157
-1.9013811 931.37532 119.38446
1.8365843 899.63516 115.31598
6.2506605 1020.63423 130.81677
9.182468 899.58981 115.30691
12.911603 903.52069 115.80632
18.858735 1026.4302 131.55885
20.998724 935.11652 119.8553
25.814034 972.70074 124.67529
30.692949 1002.33573 128.47788
32.028262 922.9003 118.29286
37.329124 962.40665 123.35584
38.363052 894.86397 114.69906
47.592006 1013.59863 129.921
50.910899 997.55434 127.85879
48.85805 886.41695 113.62025
58.79586 993.15054 127.30076
60.831208 961.23174 123.21019
67.67208 1004.5252 128.75275
79.388239 1111.0962 142.41886
73.590335 974.27335 124.8783
73.135525 918.60449 117.74146
73.055005 872.82784 111.8761
87.521669 997.04335 127.79994
87.566995 953.21735 122.17865
81.382519 848.19378 108.71504
94.488438 944.59728 121.07007
102.61728 985.65336 126.33354
96.78597 894.50154 114.65387
109.24116 972.97473 124.70745
117.06786 1006.03214 128.9523
116.12898 964.19752 123.58896
119.03489 955.8524 122.52078
122.61726 953.40879 122.20059
125.92285 948.981 121.63825
138.60764 1013.34928 129.88538
132.14335 938.1347 120.24405
126.2201 870.84773 111.62008
139.06473 933.14022 119.60727
144.28454 942.39504 120.78809
141.26385 898.69668 115.19354
147.6926 915.76705 117.3799
160.71705 971.95833 124.58178
154.63542 912.63261 116.97954
168.43266 970.66743 124.41297
178.52121 1005.16836 128.84109
165.47688 910.75728 116.73696
183.56573 988.14098 126.65539
195.97854 1032.26025 132.31146
161.8873 834.74371 106.99645
194.46457 982.04961 125.87275
179.05705 885.98394 113.56526
180.53337 875.56477 112.22856
204.37417 971.96099 124.58446
181.965 848.925 108.815
199.68025 914.13477 117.16775
220.47696 990.84711 127.00545
214.24633 945.48198 121.18708
224.61135 973.6683 124.79751
233.36691 994.05516 127.41078
222.92251 933.31939 119.62757
240.1165 988.39725 126.69
252.96211 1024.08357 131.25924
254.48904 1013.49144 129.90861
255.92091 1002.90708 128.54975
253.29402 976.96071 125.22321
259.04825 983.68225 126.08525
243.31411 909.83477 116.62261
281.62332 1037.25408 132.94908
270.272 980.6995 125.706
264.90421 947.18789 121.40741
285.28929 1005.39387 128.86614
246.26238 855.53169 109.65825
283.97073 972.75775 124.68452
265.66196 897.46253 115.03657
287.85761 959.21594 122.94665
272.38555 895.48223 114.78196
269.29119 873.60534 111.97518
292.08291 935.14302 119.86128
312.92525 988.95665 126.7585
289.3268 902.73285 115.7078
276.73338 852.57648 109.28106
319.55845 972.27424 124.61697
314.36026 944.73573 121.09219
326.71359 969.93387 124.31798
296.94591 871.02774 111.64788
309.84789 898.10622 115.11753
338.64165 970.09515 124.3449
326.97329 925.81279 118.67011
310.954 870.41052 111.56173
351.22299 972.01293 124.58688
359.5018 983.8086 126.10415
339.64644 919.20297 117.81819
341.55318 914.26864 117.18343
327.998 868.47475 111.3211
357.30708 935.95849 119.9701
362.06646 938.40268 120.28362
340.87095 874.22895 112.0581
327.95499 832.37984 106.68741
362.48562 910.57659 116.71275
320.49115 796.91585 102.14785
358.42625 882.28 113.08528
326.07905 794.68415 101.8624
401.0899 967.86755 124.05745
316.2885 755.7825 96.8715
0 0 0
358.17106 839.46055 107.59652
383.06775 889.317 113.98725
412.26723 948.12198 121.52634
676.5762 1541.5008 197.58615
326.24908 736.46099 94.39229
376.59802 842.35217 107.96838
341.88102 757.79469 97.13385
435.82086 957.336 122.70633
0 0 0
304.45956 657.00396 84.21408
350.41811 749.57505 96.07822
323.27547 685.52498 87.86708
303.37659 637.80966 81.75078
347.61112 724.58085 92.8732
376.83815 778.88304 99.83402
368.96167 756.22701 96.93068
378.47728 769.28683 98.60638
0 0 0
368.41589 736.60795 94.41481
397.66748 788.64968 101.08819
335.40645 659.8316 84.5724
295.86124 577.40219 74.01102
0 0 0
0 0 0
-485.31098 932.26343 112.2534
-519.71431 1006.24955 121.15543
0 0 0
-437.48405 860.64585 103.62512
-782.06202 1550.96913 186.7543
-398.05125 795.86085 95.82765
-425.48229 857.70558 103.27212
0 0 0
-466.90245 956.95992 115.22889
-139.85577 289.06562 34.80648
-639.42487 1332.87245 160.49191
0 0 0
0 0 0
-450.049 962.69864 115.91167
0 0 0
-365.54452 795.83373 95.82637
-394.97374 867.61689 104.46387
-379.76591 841.75761 101.3539
-415.0311 928.32135 111.77298
-378.8466 855.19021 102.97363
-380.70444 867.39201 104.43927
0 0 0
-391.24395 908.2957 109.36045
-368.59725 863.90955 104.0256
-392.6832 929.2528 111.88345
-351.84373 840.74228 101.22763
-363.36795 876.83325 105.57525
-379.92096 925.89622 111.48497
-381.15695 938.25444 112.97653
-382.30511 950.63355 114.46162
-371.60316 933.48663 112.40298
-397.44039 1008.74951 121.46103
-341.87647 876.79889 105.57156
0 0 0
-331.37335 868.0353 104.5143
-340.20621 900.81147 108.46017
-357.13925 955.99322 115.10616
-314.44633 850.99817 102.46599
-355.71515 973.44233 117.21234
0 0 0
-315.90405 884.24595 106.47315
-333.86801 945.3321 113.82529
-310.76903 890.24741 107.18955
-340.57655 987.16226 118.85759
-295.92303 868.00766 104.51129
-339.04404 1006.53833 121.19253
-293.92753 883.32864 106.35887
-269.58118 820.20565 98.76185
-300.90213 927.01557 111.61818
-304.13969 948.92827 114.26176
-262.24625 828.79125 99.79375
-305.96427 979.57324 117.94794
-304.64865 988.28376 118.99671
-308.4697 1014.10881 122.10748
-284.1123 946.7425 113.99715
-292.39252 987.79435 118.93353
-270.30698 925.92618 111.49022
-277.25302 963.20149 115.97446
-270.89883 954.67437 114.94494
-268.35265 959.49989 115.53557
-277.90776 1008.38439 121.42143
-237.10597 873.29371 105.14762
-237.88674 889.53066 107.10558
-261.80325 994.1589 119.7081
-225.5984 870.14845 104.77185
-232.57373 911.41174 109.73836
-218.42667 869.89602 104.73897
-260.8071 1055.8647 127.1295
-222.98097 917.85765 110.51571
-227.74038 953.48148 114.80784
-195.901 834.44333 100.47046
-231.06375 1001.64195 120.60855
-225.85521 996.70998 120.01227
-225.85884 1015.01415 122.21631
-212.57582 973.18081 117.18049
-209.60705 977.87756 117.74851
-179.21495 852.33876 102.62654
-207.97035 1008.64842 121.45344
-199.28749 986.08459 118.73373
-162.62313 821.23374 98.8839
-183.58697 946.64732 113.98569
-184.30385 970.77175 116.8926
-174.66894 940.23468 113.21028
-163.14088 897.91814 108.12035
-156.80595 882.89922 106.31019
-160.78166 926.56374 111.56607
-155.43893 917.38859 110.46293
-146.61 886.63755 106.7538
-139.9185 867.6009 104.4654
-145.719 926.99775 111.61395
-151.33196 988.42085 119.01733
-148.26268 994.90782 119.79738
-131.18724 905.07591 108.97272
-129.4975 919.3481 110.69465
-139.80784 1022.1682 123.07994
-129.95695 979.3984 117.9274
-118.17378 918.84639 110.63514
-161.5959 1297.67961 156.24888
-118.38378 982.85257 118.3439
-109.5958 941.88785 113.40625
-109.12815 971.9192 117.02785
-101.78993 940.75395 113.27358
-101.48334 974.73159 117.36417
-101.692983 1016.62113 122.40984
-91.32129 951.78105 114.597
-92.554751 1007.51587 121.31195
-85.694301 976.22196 117.54183
-84.220821 1006.24014 121.15521
-79.823387 1002.60662 120.71921
-73.809834 977.17935 117.66027
-68.14188 953.69742 114.82812
-64.933155 963.87326 116.05944
-27.904615 440.9416 53.09295
-56.62234 956.4308 115.1631
-51.964542 942.77385 113.52087
-46.101155 903.31116 108.76429
-47.73015 1016.54375 122.39525
-41.120708 959.19631 115.49848
-40.443531 1042.68659 125.55246
-34.193955 985.29432 118.63371
-27.80502 908.01855 109.33335
-23.310015 878.3448 105.7575
-21.285995 947.9139 114.13205
-16.906626 920.19582 110.79504
-13.235538 926.21709 111.52149
-8.744779 856.76914 103.16302
-5.9282925 967.98975 116.5515
-2.0936844 1025.59339 123.48482
1.9274868 944.18133 113.68254
6.1958257 1011.67339 121.81126
11.217231 1099.00746 132.33078
12.753214 892.46427 107.45747
18.365666 999.60862 120.35664
21.553463 959.82486 115.56617
26.101949 983.54768 118.4245
27.865796 910.00329 109.57233
32.885425 947.5892 114.09385
33.901761 874.03129 105.24426
39.589844 923.48683 111.19864
45.494982 968.93975 116.66357
51.060445 1000.48404 120.46451
49.778862 903.11985 108.74607
58.147916 982.19992 118.26594
54.241555 857.1112 103.20315
68.536845 1017.36674 122.50056
68.991 965.5815 116.259
70.66899 935.59725 112.65345
74.622653 937.28378 112.85399
85.545829 1022.07086 123.06129
79.790337 908.96452 109.44371
91.283145 993.67365 119.64525
88.47639 922.13055 111.027
90.822013 907.94443 109.32424
106.82998 1026.08523 123.54749
105.20785 972.34275 117.0771
105.80445 942.3176 113.46355
113.72716 977.39357 117.68125
111.0219 921.73235 110.9845
122.8227 986.31533 118.75864
119.94702 932.63401 112.29526
123.16523 928.21376 111.76436
125.54448 917.8854 110.52318
132.5445 940.97982 113.29923
146.85564 1013.17401 121.98792
135.96844 912.40806 109.86354
128.78996 841.18835 101.28883
140.4762 893.64545 107.59821
162.3687 1006.80918 121.22708
158.274 957.17667 115.24692
152.78469 901.72347 108.57669
150.2553 865.9017 104.26185
156.11135 878.98826 105.83927
180.1828 991.7159 119.41475
0 0 0
200.97455 1058.58025 127.4658
188.88093 973.94508 117.27261
178.82757 903.06486 108.7371
201.64825 997.76575 120.14025
185.10765 897.76518 108.10176
190.24985 904.82028 108.94562
222.09605 1036.14236 124.76431
188.41466 862.57003 103.86187
206.44404 927.76365 111.71061
209.17397 923.09486 111.14839
268.56975 1164.22731 140.18559
232.221 989.14893 119.09766
309.42234 1295.45964 155.98512
227.20143 935.23035 112.60749
225.55646 913.15422 109.9467
239.22921 952.74326 114.71411
238.95907 936.43466 112.75124
256.50912 989.37321 119.12733
254.21475 965.3427 116.2383
228.64842 854.98578 102.94614
250.11947 921.22421 110.91862
248.34872 901.12983 108.50671
273.70365 978.63249 117.83937
258.96735 912.62665 109.8823
281.6495 978.47525 117.8135
268.07994 918.29754 110.57166
272.65532 921.11585 110.90523
286.39662 954.3545 114.91371
271.4649 892.45377 107.45916
291.77205 946.51192 113.96707
276.93765 886.6418 106.7583
307.20275 970.86975 116.90125
321.12057 1001.90931 120.64128
302.74251 932.68539 112.30086
286.33306 871.17355 104.89895
336.58937 1011.53856 121.79623
307.96236 914.26447 110.08227
311.31231 913.14782 109.94633
286.78425 831.2451 100.08465
326.48759 935.27573 112.61115
330.55911 935.9631 112.69719
323.25843 904.83157 108.95189
319.77349 884.98097 106.55644
360.48985 986.50867 118.78566
0 0 0
336.96975 902.00334 108.60552
318.43863 843.17441 101.52051
350.51149 918.16782 110.55042
302.98884 785.27911 94.55061
354.87283 910.13021 109.58484
331.86819 842.31971 101.42163
292.2102 734.04735 88.3881
337.80791 839.98755 101.13922
343.75195 846.17844 101.88953
474.24096 1155.76122 139.16247
382.39245 922.74075 111.10275
383.30631 915.92316 110.27961
288.99936 683.89344 82.34181
360.01615 843.79737 101.60384
413.26371 959.41586 115.51541
377.72155 868.67856 104.59175
0 0 0
334.5606 755.22111 90.93633
363.9129 813.98265 98.00622
373.22527 827.26017 99.6083
320.83894 704.76909 84.85647
598.72956 1303.50519 156.95511
339.80961 733.28535 88.2918
359.113 768.17768 92.49079
369.32142 783.16836 94.30317
330.9405 695.764 83.7775
363.35845 757.41575 91.20085
372.80439 770.54334 92.78136
473.87765 971.25624 116.95033
329.6139 669.95959 80.66491
365.39341 736.57582 88.68748
359.80275 719.38707 86.61963
0 0 0
371.70375 731.23875 88.044
0 0 0
338.11089 654.63645 78.82017
399.91094 768.21329 92.5002
-470.9465 904.6855 101.902425
0 0 0
0 0 0
-447.71391 880.77114 99.209637
0 0 0
0 0 0
-425.79045 858.3219 96.6852
-477.42127 970.40838 109.30872
0 0 0
-482.2629 996.78054 112.27944
-462.60475 964.275 108.618
-433.73995 911.88615 102.718
-470.58197 997.90038 112.39715
-432.68537 925.55294 104.25077
-422.88108 912.53871 102.78837
-398.20557 866.936 97.65497
0 0 0
-363.68101 806.10964 90.80246
-428.33 958.07715 107.91595
-409.7493 924.95133 104.18148
-396.98154 904.47405 101.8818
-426.39875 980.615 110.45625
-386.0235 896.19255 100.9449
-397.75646 932.26272 105.00795
-369.74735 874.98055 98.556
-415.85034 993.69582 111.92805
-410.10006 989.60145 111.4695
-154.42613 376.34544 42.39285
-349.25922 859.72218 96.83607
-346.2363 860.93508 96.97602
-352.75856 886.15436 99.81272
-369.31954 937.34916 105.58499
0 0 0
-332.582 861.98194 97.08979
-338.01957 885.44183 99.73145
-332.73792 881.05092 99.23613
-322.62381 863.58393 97.27011
-343.64596 930.02154 104.75479
-503.447 1377.709 155.18475
-307.86334 852.01275 95.97385
-466.69725 1306.3617 147.1446
-328.83195 931.08645 104.88066
-332.64595 952.91245 107.33625
-298.68951 865.74921 97.51548
-335.30915 983.52265 110.78045
-312.64885 928.19505 104.5479
-286.00845 859.50117 96.81197
-304.57107 926.66241 104.3784
-318.95222 982.62386 110.68467
-318.34003 993.24565 111.87585
-320.65724 1013.36924 114.14782
-281.31207 900.64845 101.4481
-280.88151 911.18426 102.63218
-255.47839 839.91843 94.60462
-279.19729 930.37756 104.79302
-286.98723 969.53661 109.20546
-249.35595 854.16115 96.2125
-264.83463 920.0502 103.63806
-261.34857 921.03246 103.74399
-247.15171 883.70789 99.53632
-248.02746 899.95638 101.37444
-274.29597 1010.25873 113.79771
-279.68787 1045.85382 117.80802
-228.61251 868.09002 97.77684
-249.24051 961.32771 108.28161
0 0 0
-231.2055 920.7728 103.713
-250.54789 1014.28857 114.2437
-225.97758 930.22911 104.78403
-207.60607 869.20714 97.91009
-208.78761 889.34387 100.171
-208.9164 905.63165 102.0085
-211.9912 935.5096 105.378
-207.9117 934.37964 105.24627
-205.54428 940.9959 105.98922
-191.03861 891.24147 100.39316
-185.50871 882.24797 99.37092
-203.32936 986.14537 111.07545
0 0 0
-183.99571 929.19406 104.66799
-181.48116 935.75384 105.40369
-190.39553 1002.85523 112.95973
-180.6323 972.314 109.51965
-176.78165 973.02045 109.59925
-173.6262 977.61141 110.11977
-147.66048 850.97694 95.8507
-221.33132 1306.23336 147.13654
-167.8149 1014.88995 114.31575
-146.05552 905.6476 102.00996
-150.16309 955.30113 107.60407
-145.44647 949.99047 107.00822
-121.73319 816.873 92.00832
-146.40912 1010.12639 113.78133
-136.26346 967.38996 108.96555
-127.81132 934.44234 105.25359
-123.80131 932.97493 105.08859
-120.05119 933.4579 105.14541
-111.87991 898.41909 101.19388
-115.869 962.00325 108.3615
-116.82279 1003.92138 113.08023
-108.78309 968.82579 109.12644
-96.9583 896.13414 100.94003
-89.63461 860.93124 96.97714
-101.189022 1011.58332 113.94174
-90.832698 946.69311 106.63851
-90.999909 990.5896 111.58147
-85.0751 969.17084 109.16829
-71.531481 854.6289 96.26765
-79.105607 993.59186 111.91474
-76.569504 1013.72139 114.18726
-73.443451 1027.89514 115.78105
-63.655635 944.8995 106.43104
-61.193925 966.966 108.91725
-51.387 868 97.7725
-49.057827 890.03031 100.24872
-47.15515 923.96164 104.07649
-43.018261 916.20672 103.20063
-39.36985 918.3585 103.44275
-34.779045 896.66094 101.00055
-31.53639 908.71395 102.3519
-30.627905 1000.21282 112.66316
-27.549335 1038.07165 116.92505
-20.278881 903.06423 101.7171
-16.592886 903.13695 101.72619
-12.992085 909.1623 102.4068
-9.808281 960.86922 108.23631
-5.6171011 917.1851 103.31139
-2.0630862 1010.60307 113.83281
1.998171 978.80435 110.25105
5.8483577 954.9457 107.56473
8.672265 849.5793 95.70015
12.310533 861.46854 97.03464
15.753202 857.43365 96.57833
21.974365 978.56795 110.2215
26.178459 986.41641 111.10677
31.418695 1026.03758 115.57204
32.639302 940.49411 105.93142
35.857465 924.46438 104.13235
37.156626 866.73186 97.62759
44.136829 940.03008 105.88407
42.19145 826.70252 93.12107
55.183219 1001.16007 112.76584
53.14884 897.76 101.1247
57.302619 905.47688 101.99123
69.667185 1034.1345 116.48224
66.786089 934.72046 105.28595
72.22832 956.24745 107.7133
77.055013 967.83574 109.01366
86.285367 1030.9023 116.12355
85.4227 973.13068 109.61433
88.272639 960.9016 108.23737
94.819086 988.24077 111.31857
104.749926 1047.18156 117.95142
102.60127 985.47468 111.00598
109.3587 1010.74446 113.84967
113.44047 1010.30457 113.79852
96.60567 830.18474 93.51079
118.95884 987.65667 111.25114
106.23065 853.05435 96.0842
121.82597 947.2577 106.69983
132.42949 997.99747 112.41261
137.23892 1003.36854 113.01729
128.77798 914.24748 102.97965
148.69008 1025.86351 115.55397
118.80339 797.213 89.79392
149.65795 977.49795 110.1067
148.92845 947.44665 106.71935
139.09296 862.4748 97.14708
156.14082 944.28891 106.36335
166.53812 982.85976 110.71114
163.9728 944.9859 106.4395
177.4498 999.14039 112.54483
171.80689 945.63897 106.51505
155.2167 835.506 94.10985
189.28319 996.99629 112.29979
158.0154 814.7596 91.77485
201.75815 1018.8959 114.77235
185.6767 918.72718 103.48482
185.666 900.47825 101.42625
192.87179 917.26553 103.31508
208.53833 972.88191 109.58948
222.93812 1020.6261 114.95838
199.2757 895.56844 100.87467
255.9272 1129.3976 127.218
211.59768 917.25473 103.3177
196.51935 837.08645 94.285
225.15675 942.6885 106.18725
242.40378 997.84701 112.40073
235.76771 954.45423 107.5043
244.2789 972.83744 109.5774
225.3986 883.28191 99.4945
250.23847 965.17687 108.71517
243.29637 923.84774 104.05708
261.70977 978.62722 110.23542
257.10363 946.93767 106.66509
326.74118 1185.56554 133.54652
254.11373 908.60107 102.34016
253.20687 892.33986 100.51209
272.53491 946.8014 106.65142
265.51533 909.51461 102.4475
268.92707 908.52349 102.33314
280.34037 934.18668 105.22206
267.05159 877.96683 98.89022
316.61409 1027.10134 115.68862
318.66225 1020.22875 114.9175
309.85868 979.24268 110.30374
315.30533 983.77715 110.80935
320.7941 988.2983 111.32385
334.37619 1017.34497 114.5928
333.10095 1001.02167 112.75247
337.40683 1001.69679 112.82682
314.77347 923.28777 103.99581
332.41775 963.51025 108.527
343.13331 982.95501 110.72025
318.23515 901.08165 101.50082
302.09865 845.62338 95.24844
340.30558 941.79675 106.08745
317.76892 869.59124 97.95051
372.59908 1008.37842 113.58067
346.98591 928.79523 104.61521
573.06816 1517.41716 170.91249
339.43833 889.15827 100.15005
346.186 897.24062 101.06117
323.35455 829.29805 93.41115
384.6319 976.2126 109.96265
350.55152 880.61012 99.18824
355.1427 883.08132 99.47058
336.53166 828.39254 93.30721
307.71955 749.9304 84.47475
360.59866 870.15095 98.0145
0 0 0
331.03035 783.35955 88.236
332.17934 778.56288 87.69555
330.1465 766.46845 86.3331
318.50995 732.4966 82.50825
392.18418 893.54385 100.6506
426.6711 963.14991 108.48396
308.966 691.08693 77.84269
368.59009 816.99076 92.02814
358.17573 786.77522 88.62062
699.66255 1523.24 171.58355
458.0166 988.35795 111.32865
363.59053 777.75286 87.60313
0 0 0
385.87899 811.26423 91.3836
411.82581 858.429 96.69528
317.6089 656.46014 73.94504
317.16829 650.05432 73.22344
452.82551 920.41494 103.67736
478.84845 965.2779 108.7332
0 0 0
432.3007 857.33495 96.56755
402.62691 792.07314 89.218737
305.37375 595.96169 67.128385
396.79409 768.26552 86.535889
0 0 0
-417.00232 801.0624 84.008154
-613.63013 1188.09838 124.596825
-455.41215 888.77836 93.206784
-461.54691 907.98411 95.22084
0 0 0
0 0 0
-479.17335 965.9277 101.298405
-590.26193 1199.75562 125.818955
-1.30968 2.68431 0.281505
-452.2448 934.72617 98.025312
-401.76846 837.47013 87.826089
0 0 0
0 0 0
-6904.5432 14769.43368 1548.871152
-447.44064 965.55287 101.258887
-356.10064 775.26791 81.302733
-401.31385 881.54773 92.448622
-436.80846 968.18513 101.534653
-366.87987 820.61028 86.058609
-428.58034 967.46819 101.459098
-396.45946 903.28659 94.728699
-427.49361 983.12868 103.102287
-400.47426 929.73123 97.501824
-420.69774 986.02581 103.404924
-394.81155 934.28034 97.978888
-365.43126 873.19869 91.572741
-351.71838 848.70773 89.00489
-337.41112 822.29226 86.234331
-398.21043 980.22419 102.796352
-383.62521 953.89286 100.03572
-394.98203 992.21383 104.054175
-366.6642 930.61995 97.59555
0 0 0
-330.67398 857.03319 89.878048
-387.25045 1014.40089 106.381228
-371.66234 984.10928 103.204423
0 0 0
-354.24311 958.71477 100.541246
-335.76331 918.83959 96.359558
-320.26593 886.34465 92.950891
-356.562 998.06475 104.6682
-303.22185 858.59025 90.040575
-298.13382 854.03277 89.56377
-365.76785 1060.18017 111.181931
-350.97323 1029.47484 107.961075
-331.94425 985.4768 103.347365
-286.21798 860.14798 90.204487
-293.6115 893.3274 93.684465
-324.10655 998.50475 104.714025
-274.2411 855.65571 89.732916
-281.86902 890.81052 93.420171
-285.67395 914.63814 95.918652
-305.71373 991.74698 104.005874
-265.52652 872.92898 91.545027
-266.82867 889.15833 93.246819
-282.69241 955.01406 100.15005
-274.08006 938.87313 98.45728
-235.3131 817.4997 85.73085
-285.4516 1005.97516 105.49938
-252.16918 901.63797 94.55168
-276.76398 1004.25099 105.31773
-247.91619 913.11216 95.75619
-261.39951 977.46921 102.50343
-250.06632 949.5927 99.5883
-246.43416 950.53035 99.687
-251.64777 986.16177 103.41507
-213.94207 852.01553 89.35077
-232.60575 941.68425 98.75775
-203.61495 838.15491 87.89646
-214.23897 896.98374 94.07196
-201.67719 859.0595 90.09259
-213.99477 927.67752 97.28862
-196.76575 868.33795 91.06625
-190.36648 855.49505 89.71223
-201.88779 924.25788 96.92592
-212.4615 991.17111 103.94819
-199.57275 949.15275 99.53775
-190.23336 922.63369 96.75499
-164.93922 816.10848 85.58325
-181.44297 916.2762 96.08787
-188.44305 971.66725 101.89795
-187.58094 988.03008 103.61739
-177.86472 957.45221 100.40624
-153.45866 844.6181 88.57832
-164.3733 925.5141 97.06095
-164.78814 949.67814 99.59382
-2722.36311 16067.13576 1684.99155
-163.40589 988.22952 103.64044
-139.84071 867.09717 90.93134
-131.75438 838.16633 87.90165
-126.00198 822.94677 86.30307
-153.79389 1032.0062 108.22533
-122.27676 843.60509 88.46811
-129.16694 916.96983 96.16299
-131.68983 962.80419 100.97295
-126.2606 951.49 99.781
-124.9768 971.71235 101.9081
-128.19513 1029.45143 107.96093
-113.82558 945.02793 99.10692
-116.22456 998.81745 104.74971
-103.32238 920.2004 96.49815
-96.61197 892.92252 93.6411
-105.15279 1010.03446 105.91854
-101.4709 1014.4015 106.38475
-95.277979 993.02015 104.14149
-92.531745 1007.25714 105.63579
-76.622332 872.87718 91.5359
-82.54122 986.1644 103.4203
-81.224115 1020.19176 106.98513
-77.98131 1032.41175 108.27441
-70.244062 983.11164 103.10364
-62.37105 925.83456 97.09731
-59.862695 945.92874 99.19777
-57.190021 966.02359 101.30876
-50.521328 916.59438 96.12122
-48.715012 954.53247 100.09776
-44.920098 956.70198 100.33497
-41.618246 970.78628 101.8034
-37.814607 974.92761 102.23982
-32.045855 923.37955 96.83896
-31.74892 1036.83587 108.73275
-26.516925 999.171 104.7813
-20.474776 911.7731 95.61559
-17.92287 975.48678 102.29868
-13.230441 925.83295 97.09399
-9.247561 905.98039 95.00819
-5.93853 969.66675 101.6925
-2.0282697 993.54546 104.1957
1.9998455 979.6219 102.7355
6.0481644 987.56829 103.5699
8.293367 812.49833 85.20493
14.338899 1003.40005 105.22861
17.59401 957.58794 100.42164
19.135096 852.1151 89.35939
26.728005 1007.1246 105.61538
31.74892 1036.83587 108.73275
29.838175 859.76675 90.1676
37.120761 957.03903 100.36386
40.169914 937.00252 98.2606
47.252398 1006.37498 105.54447
47.39702 928.70745 97.3896
54.571792 990.08082 103.82758
57.307575 968.00925 101.517
54.460605 860.56686 90.24603
57.29045 850.41824 89.18799
64.573502 903.74844 94.78044
73.48671 972.90675 102.03381
80.276895 1008.29448 105.73749
79.886628 954.44856 100.09422
85.66742 975.9183 102.3415
87.800525 955.7553 100.23455
96.037923 1000.94055 104.97213
105.232748 1052.00858 110.32877
93.82389 901.21586 94.50714
103.45933 956.20828 100.2779
105.54198 939.9684 98.57115
112.31592 965.22715 101.22697
108.11646 897.62841 94.13604
121.55799 976.15289 102.37139
123.20048 957.90121 100.45966
136.46612 1028.398 107.8462
140.58597 1027.84521 107.79405
117.51278 834.23571 87.48663
135.40332 934.16713 97.96527
141.47865 949.367 99.55905
151.2927 988.12605 103.62555
153.06986 973.76651 102.12255
137.62353 853.34931 89.48962
172.49301 1043.18568 109.40396
165.67149 977.77784 102.54145
158.66598 914.39598 95.89374
179.68002 1011.69954 106.09943
188.66702 1038.4007 108.90104
182.22504 980.92397 102.86768
0 0 0
171.77673 885.73085 92.88587
186.85341 943.5986 98.95311
197.65118 977.96512 102.55675
205.50024 996.67821 104.51991
184.42569 877.11449 91.98309
189.9435 886.12059 92.93111
0 0 0
212.8388 956.48425 100.30255
195.88635 864.45711 90.65925
227.41137 985.83912 103.38822
231.23529 984.9645 103.29669
236.42553 989.87526 103.81404
238.84245 983.16441 103.10346
233.56003 945.54757 99.16291
247.86267 987.10293 103.51737
230.00065 901.33065 94.51915
231.95272 894.67345 93.829
270.84184 1028.4849 107.8621
257.28703 962.09113 100.89079
251.56585 926.5544 97.16585
254.55942 923.68071 96.86817
260.74454 932.29941 97.76704
269.6988 950.45988 99.67734
264.48642 918.85054 96.35947
284.11758 973.25709 102.06304
294.55363 995.08458 104.35215
275.98035 919.65465 96.444995
304.90668 1002.39282 105.122043
287.54091 932.79366 97.823358
310.59255 994.41966 104.285388
268.06074 847.17124 88.843677
323.4405 1009.16205 105.83118
276.18179 850.85855 89.230245
322.8173 982.18748 103.003343
295.64338 888.47338 93.174997
287.47325 853.4512 89.501785
323.99999 950.35692 99.663975
345.64575 1001.85615 105.065445
306.00534 876.58149 91.92849
329.73305 933.65825 97.912975
331.1172 926.84135 97.19892
353.40855 978.06775 102.569885
361.72263 989.87907 103.809534
328.02843 887.76801 93.100998
328.42804 879.14004 92.196167
340.01654 900.31568 94.416913
360.98415 945.59643 99.165636
360.76782 935.02971 98.057632
348.17265 892.96101 93.645009
327.99116 832.46501 87.30189
389.09227 977.41847 102.502575
322.72053 802.45198 84.15396
371.98773 915.67509 96.027072
379.7292 925.4241 97.049835
324.28206 782.50301 82.06193
373.11646 891.56249 93.498561
385.51275 912.2757 95.67124
364.44846 854.18949 89.579196
357.15846 829.17033 86.955904
358.42779 824.29452 86.445093
347.65214 792.08481 83.066841
353.58886 798.18401 83.706142
345.75279 773.35476 81.102853
363.93882 806.66971 84.596351
346.04555 760.14239 79.716746
382.69392 833.16423 87.374349
347.82336 750.58413 78.714813
407.6872 872.07928 91.454992
363.0501 769.86765 80.736795
388.71567 817.21827 85.701429
348.37158 726.16649 76.153597
472.1904 975.95091 102.348576
350.55768 718.50031 75.349505
374.02301 760.23234 79.725935
373.87025 753.6555 79.037075
0 0 0
387.7622 769.0023 80.64568
355.07079 698.51759 73.25396
314.65665 614.08116 64.399104
0 0 0
0 0 0
0 0 0
0 0 0
-484.77011 946.06622 91.865499
-397.72745 782.43372 75.976559
-432.85075 858.43505 83.3567
-471.05205 941.80814 91.45164
-478.58032 964.74926 93.67946
-7202.44083 14639.4003 1421.5236
-499.30812 1023.36219 99.371277
-442.98127 915.59196 88.905617
-462.34497 963.74714 93.582768
0 0 0
-403.22061 855.05849 83.02801
-416.38569 890.67867 86.487849
-405.84627 875.79189 85.041378
-436.98478 951.37571 92.380798
-442.84856 972.77107 94.459409
-381.37484 845.32938 82.083477
-419.15305 937.53985 91.0373
-600.72216 1356.06208 131.676737
-388.71072 885.62968 85.997586
-355.48505 817.5288 79.383815
-410.19564 952.29639 92.470989
-407.68784 955.52359 92.784237
-371.8043 879.85373 85.436351
-375.66627 897.6676 87.165986
-398.46895 961.5254 93.36657
-391.32315 953.68005 92.60559
-376.7343 927.3537 90.049005
-369.01866 917.57172 89.098911
-373.14868 937.35929 91.020076
-328.20692 833.03138 80.889323
-362.8854 930.67367 90.371303
-379.6515 983.98044 95.547216
-379.69811 994.61898 96.579874
-345.17466 913.96827 88.749108
-360.02116 963.69603 93.577404
-349.65721 946.29395 91.887204
-318.2158 870.82947 84.559937
-289.3491 800.78445 77.757975
-342.73569 959.3694 93.156426
-309.40146 876.087 85.070007
-355.45143 1018.21494 98.871402
-319.24891 925.35688 89.855047
-302.37153 886.92073 86.123143
-290.21531 861.5981 83.662755
-329.8056 991.14765 96.242603
-301.28148 916.66431 89.010402
-319.40938 984.05768 95.554752
-298.75336 932.11992 90.510708
-309.7124 978.77985 95.041704
-304.87522 976.11215 94.782857
-248.44204 805.95438 78.260259
-279.6184 919.2783 89.26443
-251.56101 838.29351 81.399795
-274.41431 927.05254 90.019468
-286.55354 981.59633 95.31587
-282.85634 982.66441 95.41857
-266.0922 937.73515 91.05679
-267.90183 957.90114 93.014892
-249.98085 907.0677 88.078725
-258.53208 952.20235 92.461291
-259.53498 970.48647 94.236564
-256.33905 973.38069 94.51839
-254.10762 980.13375 95.172894
-233.12299 913.56143 88.709278
-221.8509 883.5423 85.79406
-230.39375 932.7111 90.568145
-212.22306 873.59832 84.828723
-200.51976 839.54211 81.521409
-236.86914 1008.94761 97.971633
-208.33918 903.14448 87.697407
-225.07023 993.26139 96.44844
-207.80664 933.87097 90.680921
-219.88575 1006.641 97.74747
0 0 0
-207.10335 984.92631 95.638578
-198.41661 962.325 93.444225
-193.85743 959.18191 93.13925
-183.50813 926.72697 89.987976
-179.86397 927.43872 90.056304
-176.58168 930.08751 90.313617
-191.8201 1032.56015 100.264035
-173.14535 952.98539 92.537165
-165.54057 932.09412 90.508572
-160.82955 926.856 89.99991
-173.4509 1023.66278 99.399986
-149.2456 902.55909 87.640435
-155.47869 964.06794 93.612906
-56.72719 360.89312 35.043362
-158.03185 1032.17404 100.226705
-138.6504 930.39975 90.34389
-139.50583 962.46224 93.457866
-139.5342 990.6084 96.19056
-137.99247 1008.90306 97.967595
-131.85658 993.65725 96.486712
-126.58909 984.29822 95.578402
-119.925 963.066 93.51615
-121.05351 1005.04008 97.592337
-112.63395 967.94709 93.989874
-109.3941 974.3226 94.60925
-107.60535 994.548 96.57246
-99.66869 957.34934 92.960611
-103.728384 1036.96974 100.692084
-88.316314 920.46249 89.37909
-87.139635 948.55926 92.107422
-89.737209 1022.27774 99.265711
-81.7747 977.0018 94.86929
-82.55082 1036.85945 100.68157
-75.642712 1001.45268 97.243384
-69.305449 969.97537 94.187685
-63.489998 942.44241 91.513019
-61.669584 974.47635 94.624317
-58.764177 992.6064 96.384519
-46.83519 849.7161 82.510065
-50.98566 999.0102 97.00662
-46.261862 985.28193 95.674113
-39.774723 927.78453 90.09048
-37.844037 975.68298 94.741056
-29.032161 836.56793 81.23219
-30.555392 997.84458 96.892809
-22.840325 860.64905 83.57111
-20.713815 922.42989 89.570448
-17.680628 962.31005 93.443144
-13.15535 920.5785 89.39015
-9.640891 944.51123 91.714207
-6.1015955 996.2953 96.742646
-2.0258043 992.33404 96.358056
1.8632523 912.70844 88.626216
6.0162585 982.3611 95.389602
10.108205 990.29365 96.159785
13.468234 942.47334 91.516186
18.594828 1012.06755 98.274744
19.730635 878.64681 85.318992
24.160575 910.39755 88.40181
26.899712 878.46138 85.300449
30.758211 886.30443 86.06169
37.381113 963.74802 93.582144
45.572539 1063.02429 103.22264
48.502598 1033.00497 100.308177
52.0003 1018.891 98.9371
54.832778 994.81382 96.599503
56.411257 952.8624 92.525279
56.011824 885.07485 85.943187
60.54631 898.74645 87.270055
67.319213 942.17669 91.488345
74.293288 983.58732 95.508616
80.18094 1007.09315 97.79119
74.80102 893.68388 86.778914
84.166713 958.81918 93.103727
85.864865 934.68274 90.759978
83.943278 874.88523 84.95343
95.208192 951.79362 92.421292
98.22571 943.48906 91.614749
96.68421 893.6088 86.771076
110.06046 980.25756 95.18555
104.81055 900.71481 87.461466
118.19679 981.32232 95.289273
123.861 994.67432 96.585398
129.12849 1004.04342 97.495722
128.9759 971.94875 94.37876
129.89907 949.72986 92.221695
126.76092 899.92584 87.385056
144.36069 995.95632 96.710238
143.34544 961.90535 93.403154
149.59545 977.07228 94.876185
133.70305 850.6064 82.59539
0 0 0
156.3912 945.77193 91.836495
166.1337 980.47854 95.206698
180.57159 1040.6288 101.047518
173.19965 975.2194 94.69614
174.21305 958.86197 93.107795
168.54714 907.28271 88.099299
178.80984 941.82363 91.453221
169.62935 874.6656 84.93192
197.04403 995.08407 96.625656
182.41925 902.58725 87.64375
210.07635 1018.875 98.935375
212.83915 1012.20419 98.287322
194.25315 906.24471 87.999051
199.49055 913.2714 88.681038
200.45448 900.83079 87.472647
0 0 0
236.53546 1025.37456 99.566229
268.26966 1142.69859 110.959227
196.81928 824.04883 80.016977
219.7437 904.5564 87.834835
245.67375 994.56966 96.574737
257.73498 1026.45406 99.671132
240.01575 940.57275 91.33215
224.12442 864.48375 83.943054
226.42015 859.77147 83.48657
242.55846 907.00569 88.072428
272.6196 1004.08825 97.499545
271.67231 985.77622 95.721535
4392.35643 15705.16794 1525.015932
261.7434 922.40955 89.56863
285.61054 992.23271 96.34767
279.85706 958.65737 93.08843
289.11003 976.69902 94.840284
263.00861 876.44111 85.103995
246.00624 808.77438 78.534198
307.10604 996.26238 96.739659
281.72014 901.97705 87.584159
300.7004 950.29935 92.276184
331.57672 1034.52984 100.454916
294.81578 908.28808 88.197312
309.3654 941.26005 91.39871
301.5096 906.11115 87.985373
274.95755 816.3005 79.264275
321.00867 941.58747 91.431477
323.14615 936.6532 90.951955
350.85649 1005.05242 97.593286
369.7563 1046.985 101.664585
296.50155 829.953 80.58987
0 0 0
322.3174 882.05391 85.649861
366.22537 991.13315 96.241188
379.53828 1015.93899 98.650332
359.95278 953.09841 92.548764
323.57809 847.61262 82.305206
352.4055 913.36428 88.690192
344.0718 882.42339 85.686051
340.61964 864.53646 83.948541
370.2018 929.95665 90.30126
363.07274 902.78708 87.663279
355.74214 875.68026 85.031349
311.92425 760.17975 73.81605
297.80311 718.61372 69.779226
301.07133 719.4204 69.857694
389.6385 922.05735 89.534445
326.3848 764.96855 74.280765
373.94396 868.13571 84.298721
337.21431 775.51056 75.303753
379.90368 865.56392 84.049134
351.39624 793.23712 77.025143
339.46925 759.30725 73.7305
348.60364 772.69098 75.030117
323.15976 709.85997 68.929839
328.05042 714.21069 69.351522
317.89197 685.99179 66.611358
378.41739 809.46177 78.601419
319.09239 676.65851 65.70499
355.5849 747.5676 72.590343
450.28005 938.5981 91.14072
353.60405 730.8594 70.967755
338.551 693.88075 67.377725
304.77447 619.4727 60.1524
311.23216 627.39938 60.92198
0 0 0
329.68425 653.83395 63.4893
357.99985 704.27916 68.387527
383.90885 749.2277 72.751965
366.20919 709.0452 68.850756
469.71105 902.29854 87.615073
0 0 0
0 0 0
0 0 0
0 0 0
0 0 0
-363.4085 726.59695 64.90986
0 0 0
-434.31948 882.79254 78.863274
0 0 0
0 0 0
-450.5413 939.1415 83.897825
-454.26715 955.02732 85.317132
-413.66122 877.19842 78.363474
-444.49236 950.80635 84.939192
-429.557 926.95875 82.808725
-435.58341 948.30978 84.716958
-457.97264 1006.00717 89.871142
-456.20757 1011.18276 90.333306
-426.72271 954.4851 85.267965
-388.75347 877.55301 78.395904
-435.40872 992.02881 88.62311
-374.77649 861.89257 76.996893
-427.00524 991.32405 88.559076
-385.2532 902.93965 80.66362
-367.37918 869.37441 77.665364
-398.98575 953.37632 85.16881
-365.89686 882.93212 78.876791
-374.91512 913.702 81.624706
-602.01945 1481.91255 132.385215
-517.24335 1286.13251 114.8966
-356.42653 895.35497 79.985405
-438.73731 1113.55519 99.47883
-381.20706 977.67891 87.340032
-368.40544 954.84298 85.300566
-311.69457 816.487 72.940967
-372.14856 985.39882 88.030131
-314.21474 841.0835 75.137994
-351.95241 952.50006 85.090576
-360.14706 985.57641 88.045542
-371.48808 1028.08646 91.844131
-328.19996 918.68381 82.070549
-352.08224 996.9156 89.058218
-322.18002 922.91499 82.448145
-346.75366 1005.08199 89.78805
-510.28398 1496.76318 133.712685
-268.7776 797.9335 71.283355
-335.68887 1008.80582 90.120954
0 0 0
-283.31802 872.85933 77.976465
-314.14563 980.17238 87.563278
-317.72363 1004.11829 89.702305
-265.8687 851.20765 76.041885
-306.13093 993.10288 88.718623
-308.21685 1013.29412 90.522954
-277.50222 924.73608 82.610157
-276.2956 933.39649 83.384996
-274.4536 940.16086 83.988503
-250.5204 870.33114 77.750406
-263.00466 926.85983 82.800342
-258.42105 923.9985 82.544508
-279.26905 1013.3275 90.52533
-263.40954 970.14341 86.667046
-286.98985 1073.15405 95.86993
-225.04964 854.57128 76.342316
-254.78057 982.7236 87.790926
-252.00582 987.54282 88.221474
-232.68217 926.65293 82.781839
-214.30227 867.56943 77.503491
-237.76698 978.7491 87.435324
-234.44872 981.58687 87.689332
-238.39143 1015.45389 90.715221
-205.34381 890.16858 79.52224
-221.70112 978.39113 87.404579
-226.54986 1018.14468 90.954984
-200.89755 919.7307 82.16397
-214.4376 1000.38016 89.368513
-200.68521 954.40752 85.26111
-192.92203 935.66753 83.587399
-181.35546 897.35755 80.16437
-180.15781 909.78251 81.274438
-190.6083 982.83975 87.801825
-183.39447 965.96703 86.294397
-178.85685 962.76003 86.007585
-178.61424 983.05033 87.820674
-155.2122 873.90171 78.06942
-161.62419 931.42452 83.20832
-162.91539 961.51506 85.896481
-166.24773 1005.39417 89.816331
-142.5814 884.10357 78.980746
-144.31644 918.11865 82.019097
-134.32716 877.32315 78.375033
-134.93677 905.43556 80.886704
-142.74711 984.82419 87.978933
-132.40982 940.01061 83.975501
-128.64547 940.53476 84.022198
-133.51957 1006.21155 89.889047
-129.47414 1006.73124 89.935921
-114.59679 920.25626 82.210093
0 0 0
-117.77799 1012.16643 90.420924
0 0 0
-97.39935 900.1827 80.417412
-104.69725 1005.5808 89.832575
-92.103847 920.75977 82.255518
-86.857342 905.25776 80.869888
-94.3092 1026.60615 91.71135
-69.245295 788.83875 70.47039
-80.337393 959.83453 85.745824
-77.0757 968.097 86.48445
-72.546274 960.45341 85.800943
-73.045623 1022.33208 91.329924
-63.13385 937.1534 83.71954
-59.449005 939.3867 83.91978
-60.218895 1017.17913 90.868998
-53.228278 965.69834 86.269466
-48.178832 944.01775 84.332885
-49.472244 1053.65205 94.127097
-36.645799 854.81667 76.364241
-36.481725 940.54905 84.02373
-32.922338 948.65432 84.747431
-31.187178 1018.46811 90.984597
-25.023528 942.91843 84.234703
-18.805601 837.45098 74.813678
-18.059139 982.92369 87.808455
-13.933128 975.01547 87.102609
-10.440482 1022.87146 91.377325
-5.6546073 923.30127 82.482606
-1.8889357 925.31187 82.66242
1.9214685 941.24835 84.0861
5.7400059 937.24541 83.728298
10.399818 1018.88754 91.021425
12.794568 895.34107 79.984929
17.766387 966.98977 86.385015
19.252821 857.36658 76.592838
22.962456 865.25461 77.296681
30.577458 998.55671 89.205817
33.820534 974.53576 87.059533
37.408245 964.43601 86.157666
42.021085 980.20305 87.565515
44.426916 946.19745 84.527733
49.600336 971.87075 86.821105
49.171746 892.10238 79.694862
56.922455 961.49777 85.894742
62.091183 981.13722 87.649548
68.48985 1016.6574 90.82194
64.527183 903.10968 80.679204
77.947858 1031.96597 92.189431
80.712092 1013.77132 90.564742
80.171235 957.84935 85.56848
83.007253 945.61425 84.475826
88.29528 961.14141 85.86309
98.844226 1030.18928 92.030464
99.837001 998.06791 89.161794
93.55705 898.58304 80.274035
101.47105 937.8141 83.779196
102.58222 913.64078 81.619967
