# .PCD v0.7 - Point Cloud Data file format
VERSION 0.7
FIELDS x y z
SIZE 4 4 4
TYPE F F F
COUNT 1 1 1
WIDTH 1451
HEIGHT 1
VIEWPOINT 0 0 0 1 0 0 0
POINTS 1451
DATA ascii
1.2579222 3.9754695 0.04632453
1.373355 4.285035 0.049932
1.40308695 4.32270405 0.05036769
1.4565063 4.43151675 0.051636885
1.49172975 4.48303275 0.0522396
1.469916 4.3637901 0.05084841
1.4858493 4.35840225 0.05078394
1.4724318 4.2678489 0.049732725
1.5027936 4.3049592 0.05016456
1.49346015 4.22877195 0.049276695
1.5340296 4.293924 0.05003232
1.4883678 4.1190834 0.04799604
1.585584 4.339104 0.05056128
1.5388152 4.1645424 0.04852476
1.5957264 4.2713976 0.0497724
1.6110024 4.265652 0.049704
1.6101393 4.2178227 0.049145775
1.6737675 4.3380315 0.05055015
1.6728123 4.29015615 0.04999188
1.47902925 3.7539219 0.043743435
1.6864248 4.2364224 0.049362
1.779687 4.4252721 0.0515637
1.73309175 4.26611805 0.049710975
1.7309304 4.2184104 0.04915224
1.7341746 4.1846328 0.04876092
1.7487159 4.1785626 0.04868844
1.8332733 4.3382868 0.05055243
1.7187558 4.0284174 0.04694046
1.8216459 4.22909385 0.049278105
1.7883489 4.112745 0.047922225
1.8506574 4.21647615 0.049130745
1.8468456 4.16898 0.04857768
1.9528542 4.36808295 0.050898045
1.8566583 4.11528705 0.047953815
1.976211 4.3410816 0.05058108
1.7592567 3.83004405 0.04462842
1.9549995 4.218759 0.0491598
2.0199519 4.3209045 0.05034735
1.983225 4.2055995 0.04900635
1.9263972 4.049955 0.04719117
2.0241936 4.2193476 0.0491634
2.0446725 4.22611035 0.049245855
2.01915435 4.1384214 0.04822356
2.0261637 4.1183316 0.04798845
1.9596717 3.9503898 0.04603158
1.918917 3.8366328 0.04470609
2.11373595 4.1919777 0.04884678
2.0254017 3.9845133 0.04642989
2.1546 4.204872 0.04899825
2.19569295 4.2511854 0.04953432
2.1747012 4.1775816 0.04867785
-2.1471375 4.1245965 0.01602018
-2.14072185 4.14480585 0.016098915
-2.1273333 4.1516634 0.0161255055
-2.1206484 4.1719392 0.016204032
-1.9585005 3.884115 0.015086235
-2.0666184 4.1319894 0.016048956
-1.8264429 3.6818613 0.014300745
-2.092473 4.2531072 0.016519374
-1.9337409 3.9633993 0.015394428
-2.025168 4.1857905 0.01625826
-1.8491085 3.85438275 0.0149706225
-2.0038041 4.2126816 0.0163624875
-1.951329 4.13795025 0.0160724325
-1.82312445 3.89985645 0.015147573
-1.93617225 4.17816255 0.0162284805
-1.828212 3.9801936 0.015459648
-1.8520104 4.0682364 0.01580145
-1.912266 4.238568 0.01646286
-1.83663 4.108095 0.0159561
-1.87731405 4.2377805 0.016459812
-1.796493 4.0930896 0.015898002
-1.824327 4.19550375 0.0162956925
-1.596246 3.7058247 0.014393652
-1.7070705 4.0009995 0.015540375
-1.72243125 4.07600025 0.0158313225
-1.7951325 4.2894855 0.01666095
-1.6481262 3.97700205 0.015447201
-1.73671575 4.2325155 0.0164393475
-1.74447495 4.2941421 0.0166790475
-1.735008 4.314177 0.01675674
-1.71425475 4.3062858 0.0167263245
-1.7045505 4.326267 0.016803705
-1.68375645 4.3183368 0.0167726745
-1.65766185 4.2962808 0.0166871385
-1.5727824 4.1199543 0.016002567
-1.5474978 4.09749 0.015915168
-1.5643212 4.1873172 0.016264095
-1.57525155 4.26325545 0.0165587985
-1.493007 4.0857375 0.015869235
-1.44257835 3.9923376 0.0155065605
-1.513935 4.23765 0.01645965
-1.4685741 4.1582772 0.016151184
-1.532547 4.390158 0.017052015
-1.3893564 4.0270632 0.015641442
-1.4423796 4.230855 0.016433061
-1.40292795 4.1650536 0.0161775555
-1.46340855 4.3978734 0.017081829
-1.4472324 4.40325 0.0171026865
-1.4448564 4.4513352 0.017289324
-1.4100702 4.3995336 0.017087994
-1.3847112 4.376106 0.016997229
-1.3505289 4.3239756 0.016794522
-1.3388661 4.3432929 0.0168696765
-1.24406775 4.08993525 0.0158859
-1.2761892 4.252632 0.016517688
-1.1324817 3.8258913 0.014859957
-1.24001775 4.24769025 0.0164986125
-1.244745 4.32441 0.01679625
-1.2120312 4.2713244 0.016590504
-1.171629 4.189224 0.016271175
-1.15973685 4.20807825 0.0163447425
-1.1830203 4.35720075 0.016924026
-1.1548245 4.3181988 0.016772334
-1.1192307 4.2500529 0.01650762
-1.1330844 4.37047485 0.016975497
-1.11633375 4.3747641 0.0169922025
-1.0995831 4.3790082 0.0170084565
-1.032339 4.17933705 0.0162328635
-1.0056156 4.1395698 0.016078518
-1.0244871 4.2892983 0.016660098
-1.01133375 4.307826 0.0167322525
-0.9912798 4.297104 0.016690527
-0.971295 4.28631165 0.01664826
-0.941562 4.2314802 0.0164352855
-0.973104 4.4549376 0.017303376
-0.8551272 3.9893424 0.015495024
-0.925965 4.403655 0.0171045
-0.8754099 4.24565565 0.0164907735
-0.8884785 4.3961073 0.0170748435
-0.897435 4.531989 0.017602662
-0.8453316 4.358748 0.01692972
-0.7302258 3.8462526 0.0149392485
-0.7999632 4.3062846 0.016725906
-0.7856502 4.32419655 0.0167954925
-0.7606845 4.282923 0.01663527
-0.74115495 4.27114545 0.0165896115
-0.7567818 4.4663082 0.017347635
-0.6876351 4.158519 0.01615188
-0.6997719 4.3389198 0.0168526275
-0.6451884 4.1045583 0.015942735
-0.6787599 4.43328795 0.0172192605
-0.638979 4.28761845 0.016653336
-0.6089028 4.20106425 0.0163173555
-0.596277 4.2331905 0.0164420775
-0.6057297 4.4287419 0.017201454
-0.5623335 4.2378075 0.0164600325
-0.564453 4.3888035 0.0170464275
-0.49860495 4.00405155 0.0155521005
-0.5452848 4.5272592 0.017584272
-0.4889034 4.2016167 0.01631934
-0.5138259 4.57621875 0.017774379
-0.46308885 4.27998795 0.0166237575
-0.4504425 4.326597 0.01680492
-0.440433525 4.40300775 0.01710174
-0.41832504 4.3599396 0.016934394
-0.385583985 4.197297 0.016302777
-0.3620223 4.1241024 0.016018488
-0.364071555 4.34976615 0.0168947325
-0.3392811 4.261491 0.016551945
-0.30616767 4.05341475 0.015743745
-0.3046707 4.26409875 0.016562205
-0.28835235 4.2802617 0.016625037
-0.284211 4.491 0.01744335
-0.26416806 4.4621328 0.017331531
-0.23279805 4.2235704 0.016404786
-0.214834335 4.20947835 0.016349985
-0.189245535 4.03052115 0.015654993
-0.188242245 4.39091265 0.0170547975
-0.17034141 4.3916598 0.017057874
-0.152431785 4.39231905 0.0170600715
-0.127172085 4.1530056 0.0161309565
-0.11699289 4.4084124 0.017122707
-0.0949635 4.2289002 0.016425513
-0.07632735 4.1542521 0.016135527
-0.05829912 4.0795512 0.015845496
-0.043022505 4.2147471 0.0163706385
-0.025537914 4.1698749 0.01619628
-0.009216921 4.51495485 0.0175367115
0.008635122 4.2299577 0.016429743
0.026732133 4.36486905 0.01695366
0.044553555 4.3647381 0.0169532235
0.059799465 4.18453965 0.0162532845
0.07853175 4.2742305 0.016601535
0.0855345 3.8090094 0.014794611
0.10983006 4.1385096 0.016074378
0.12671298 4.1380128 0.016072722
0.14670909 4.2274197 0.016419591
0.17034141 4.3916598 0.017057874
0.17603541 4.1061777 0.015948855
0.20824044 4.4350716 0.017226312
0.211776195 4.14955695 0.016117245
0.2278449 4.1337072 0.016055748
0.24909807 4.2075816 0.0163428195
0.27947415 4.41615 0.0171526275
0.291377025 4.32515955 0.0167994255
0.27901422 3.90501675 0.015167493
0.32989284 4.367517 0.01696374
0.35594754 4.4708274 0.017365023
0.356564925 4.26008025 0.0165463875
0.389567475 4.4378928 0.017237286
0.39244491 4.271982 0.016592862
0.40972932 4.2703518 0.016586427
0.4478985 4.477635 0.0173916
0.43491 4.177404 0.01622544
0.4905192 4.5335064 0.01760844
0.4619412 4.114125 0.015979572
0.5253111 4.51450305 0.01753461
0.5434911 4.5123669 0.017526429
0.5152869 4.1380161 0.016072431
0.554886 4.314417 0.016757505
0.59193 4.46085 0.01732635
0.5854032 4.2801264 0.016624224
0.6046458 4.2926037 0.0166728435
0.6196608 4.275288 0.016605648
0.627924 4.2134382 0.016365216
0.6310878 4.1219199 0.016009881
0.710406 4.5194595 0.017554275
0.6830538 4.2352596 0.016450005
0.6729525 4.069725 0.015807
0.7342287 4.3332063 0.0168306525
0.7437195 4.2859245 0.016647015
0.75806145 4.2681543 0.016577907
0.7936944 4.3684716 0.01696746
0.794484 4.2767895 0.016611345
0.8449356 4.4504532 0.017286027
0.799638 4.12314 0.0160146
0.87121125 4.39956075 0.0170882985
0.9003645 4.4549181 0.0173032695
0.8966136 4.3484916 0.016890204
0.9074457 4.3155819 0.01676241
0.93372345 4.3560099 0.016919199
0.944295 4.323048 0.016791105
0.922014 4.1436294 0.0160940685
0.96798 4.2716826 0.01659144
1.0047666 4.355568 0.016917609
0.99076425 4.2202092 0.0163919355
1.0244871 4.2892983 0.016660098
1.0020747 4.12499385 0.0160219035
1.028742 4.1647749 0.016176303
1.0667052 4.2480744 0.016499898
1.1052075 4.3311618 0.016822845
1.054032 4.065558 0.01579116
1.1345103 4.3080741 0.01673298
1.12769775 4.2167646 0.016378353
1.1515779 4.24139475 0.016474218
1.19161965 4.32376425 0.0167940825
1.2403107 4.4347992 0.0172250025
1.2570729 4.43005605 0.017207043
1.244745 4.32441 0.01679625
1.2442212 4.2620892 0.01655454
1.28149245 4.32929805 0.0168152145
1.28050065 4.266999 0.016573491
1.27898895 4.20474045 0.01633182
1.2902604 4.1856156 0.016257246
1.3594728 4.3526112 0.016905744
1.3077828 4.132989 0.0160529385
1.41464835 4.4138178 0.0171434745
1.45874925 4.4941365 0.0174555675
1.3863456 4.218 0.016383156
1.4113131 4.2413148 0.016473738
1.42208055 4.2219144 0.0163984095
1.5053022 4.4154225 0.0171499395
1.4823063 4.2964794 0.0166878765
1.5127722 4.3335108 0.016831989
1.47356925 4.172421 0.01620612
1.4937492 4.181148 0.016240188
1.56491715 4.3309104 0.0168216045
1.6011213 4.38160125 0.0170183865
1.4244849 3.8552211 0.014973963
1.6325634 4.3699854 0.0169736025
1.48920165 3.9431325 0.015315624
1.5834816 4.1479812 0.016111428
1.59286725 4.128348 0.0160348725
1.6238169 4.1646096 0.016175589
1.6385679 4.1587986 0.016153239
1.69206375 4.250541 0.0165098025
1.7182176 4.2724269 0.016594578
1.76705715 4.3497297 0.0168949575
1.73671575 4.2325155 0.0164393475
1.5964428 3.8522877 0.014962794
1.82408625 4.35867075 0.016929675
1.80417375 4.26943755 0.0165826395
1.8247995 4.2769305 0.016612125
1.86921 4.3395345 0.01685502
1.884141 4.33306125 0.0168299775
1.856778 4.2304416 0.016431492
1.85301225 4.1829225 0.01624674
1.8794847 4.20395055 0.016328409
1.8567486 4.1155128 0.015984906
1.833366 4.027281 0.015642375
1.8783 4.08924 0.0158832
1.97401275 4.25982045 0.0165456495
1.9946379 4.2667419 0.016572606
1.9705224 4.1786514 0.016230522
1.997361 4.199136 0.016309875
1.9204776 4.0031484 0.015548436
2.0317008 4.19929305 0.016310706
1.9863597 4.0712469 0.015813324
2.05936425 4.1858112 0.0162579915
2.0397501 4.1118597 0.015970905
2.0733282 4.14540495 0.016101063
2.04629535 4.0582305 0.0157625145
2.03228805 3.9981084 0.015528864
2.1478542 4.1917116 0.016281057
2.2164387 4.2914067 0.01666833
2.05709625 3.95162955 0.015348366
-2.19562125 4.21773255 -0.016381926
-2.1200718 4.1048238 -0.01594362
-2.1273333 4.1516634 -0.0161255055
-2.1614301 4.2521688 -0.016515648
-1.99226775 3.9510825 -0.0153463425
-2.0263596 4.0514961 -0.015736314
-1.97975745 3.99092265 -0.0155011725
-1.960038 3.9839232 -0.015473844
-1.95347295 4.00384215 -0.015551514
-1.9859712 4.1047752 -0.015943584
-2.076192 4.327728 -0.01680912
-1.9844748 4.1720448 -0.01620465
-2.0089092 4.2600537 -0.016546701
-1.93746675 4.14444675 -0.016097595
-1.97401275 4.25982045 -0.0165456495
-1.94091 4.225548 -0.01641264
-1.9017288 4.1774508 -0.01622565
-1.8135684 4.0198032 -0.015613164
-1.9284615 4.31349975 -0.016753905
-1.90161585 4.2926385 -0.016672884
-1.748265 3.983208 -0.01547121
-1.8362898 4.22301525 -0.0164025495
-1.792068 4.1604426 -0.016159416
-1.81891305 4.26313395 -0.0165585375
-1.65236625 3.91019685 -0.0151873365
-1.75459725 4.19262615 -0.016284735
-1.72278 4.157145 -0.0161469
-1.6399152 3.9966048 -0.015523056
-1.693665 4.16907 -0.01619325
-1.6454592 4.0915098 -0.015891876
-1.664325 4.18086 -0.01623915
-1.64406645 4.1727543 -0.0162074445
-1.62926595 4.1785848 -0.0162298695
-1.57126905 4.0723704 -0.0158174505
-1.5460344 4.04988705 -0.0157304145
-1.66938975 4.4202375 -0.01716876
-1.5328248 4.1030088 -0.01593663
-1.6324389 4.4180271 -0.017159943
-1.5136002 4.1420925 -0.016088121
-1.47316305 4.0769808 -0.0158353215
-1.5845853 4.435407 -0.017227767
-1.51353045 4.2855714 -0.016645608
-1.4287293 4.0927602 -0.0158968785
-1.4823063 4.2964794 -0.0166878765
-1.4811012 4.344435 -0.016874217
-1.4172924 4.2076992 -0.016343196
-1.39710525 4.198617 -0.016307895
-1.3160916 4.00425 -0.0155529285
-1.35686835 4.1802603 -0.0162364485
-1.39633575 4.356681 -0.0169215525
-1.3485096 4.261698 -0.016552857
-1.2342582 3.9517128 -0.015348636
-1.2725856 4.1282784 -0.016034544
-1.33137075 4.37694825 -0.0170007
-1.3020579 4.338834 -0.016852506
-1.28149245 4.32929805 -0.0168152145
-1.2190005 4.1756955 -0.016218975
-1.2198501 4.2379218 -0.016460325
-1.2406941 4.37233545 -0.016982847
-1.2322305 4.405908 -0.0171127875
-1.22350245 4.43945025 -0.0172434225
-1.1358567 4.18349175 -0.016249314
-1.13544825 4.2457458 -0.016490919
-1.031373 3.916431 -0.0152118
-1.091676 4.2107565 -0.01635513
-1.023615 4.0114116 -0.01558089
-1.0484397 4.1753334 -0.0162173655
-1.093488 4.4268936 -0.017194392
-1.0339428 4.2561774 -0.016531434
-1.0384257 4.3476561 -0.016886766
-1.02504675 4.3662372 -0.0169591305
-1.0013949 4.340952 -0.0168608385
-1.004445 4.43260215 -0.01721646
-0.957852 4.3046892 -0.016719633
-0.86427 3.956688 -0.01536813
-0.9494427 4.4293434 -0.017204034
-0.86114745 4.09539915 -0.015907185
-0.8996427 4.36318245 -0.0169472655
-0.861735 4.263783 -0.016560885
-0.8799525 4.4437035 -0.017259753
-0.8510433 4.388199 -0.01704411
-0.825351 4.347297 -0.0168853575
-0.7780464 4.1883042 -0.016267662
-0.8205084 4.5160551 -0.017540685
-0.74232315 4.1795421 -0.016233729
-0.77705865 4.47805215 -0.0173932605
-0.726711 4.288839 -0.016658325
-0.7194474 4.350906 -0.01689912
-0.6567825 4.072365 -0.0158173125
-0.6451884 4.1045583 -0.015942735
-0.6787599 4.43328795 -0.0172192605
-0.625713 4.19860215 -0.016307592
-0.613206 4.23075375 -0.0164326725
-0.5628018 3.9955377 -0.0155190135
-0.6016644 4.3990188 -0.017086008
-0.5860107 4.4162415 -0.0171530865
-0.5759334 4.4780673 -0.0173931345
-0.5301153 4.2570957 -0.016534947
-0.5452848 4.5272592 -0.017584272
-0.5183763 4.45490565 -0.01730313
-0.5054574 4.5016875 -0.017484894
-0.46308885 4.27998795 -0.0166237575
-0.4566555 4.3862742 -0.017036712
-0.43595454 4.3582314 -0.016927824
-0.39540312 4.1210388 -0.016006482
-0.39793365 4.33173 -0.01682493
-0.3777624 4.3034112 -0.016714944
-0.349058295 4.17039435 -0.0161980425
-0.34047156 4.2764436 -0.016610022
-0.3050379 4.0384575 -0.01568565
-0.32391306 4.53341025 -0.017608239
-0.299442825 4.44488715 -0.0172644615
-0.25957938 4.10178 -0.015931593
-0.2304822 3.893136 -0.01512147
-0.2344491 4.2535248 -0.016521132
-0.22018608 4.3143408 -0.01675728
-0.203315835 4.33018815 -0.016818933
-0.179247735 4.18110795 -0.0162398925
-0.16976004 4.3766712 -0.016999656
-0.14983056 4.3173648 -0.016768944
-0.13130403 4.2879408 -0.016655067
-0.11858463 4.4683908 -0.017355669
-0.09934125 4.4238495 -0.0171827175
-0.07522515 4.0942629 -0.015902523
-0.06258582 4.3795182 -0.017010606
-0.043022505 4.2147471 -0.0163706385
-0.025537914 4.1698749 -0.01619628
-0.008543259 4.18495815 -0.0162549585
0.008696364 4.2599574 -0.016546266
0.026364681 4.30487085 -0.01672062
0.045778395 4.4847309 -0.0174192915
0.059799465 4.18453965 -0.0162532845
0.07467405 4.0642683 -0.015786021
0.09125925 4.0639431 -0.0157848015
0.110227995 4.1535042 -0.0161326185
0.11753088 3.8381568 -0.014908032
0.15191154 4.3773282 -0.017001846
0.16917867 4.3616826 -0.016941438
0.17860527 4.1661219 -0.016181685
0.208943955 4.45005495 -0.017284509
0.22171515 4.3443015 -0.01687365
0.227019375 4.11873 -0.015997575
0.23846043 4.0278984 -0.0156449055
0.26431623 4.17663 -0.0162223155
0.28835235 4.2802617 -0.016625037
0.30787776 4.308984 -0.016736544
0.32537376 4.307688 -0.01673136
0.357138 4.48578 -0.0174231
0.364071555 4.34976615 -0.0168947325
0.397437525 4.5275472 -0.017585514
0.40891113 4.451226 -0.017289066
0.43121862 4.4943213 -0.0174563445
0.452377485 4.52241135 -0.017565516
0.46131525 4.4310321 -0.017210556
0.47922435 4.42911645 -0.0172029825
0.4753308 4.233375 -0.016442748
0.4750338 4.0824219 -0.01585638
0.5183793 4.3038747 -0.016716627
0.5486508 4.4059452 -0.017113092
0.5319252 4.1358894 -0.016064091
0.5781183 4.3567635 -0.0169220685
0.56710935 4.14637245 -0.016104717
0.6109224 4.3371636 -0.016845918
0.580932 4.0080825 -0.015567795
0.645612 4.3321266 -0.016826208
0.6560589 4.28501745 -0.0166433655
0.6917724 4.4009163 -0.017093835
0.7117134 4.4129628 -0.017140215
0.7194474 4.350906 -0.01689912
0.6866166 4.0522134 -0.015739245
0.7642359 4.4041569 -0.017106243
0.71609265 4.0318551 -0.015660099
0.7963758 4.38322995 -0.0170247825
0.780786 4.20305175 -0.0163249425
0.7945752 4.1851944 -0.016255734
0.7767912 4.005336 -0.01555704
0.86247 4.355418 -0.016916844
0.909279 4.4990262 -0.017474589
0.8572353 4.15751055 -0.0161484045
0.9012726 4.2862242 -0.01664838
0.8739903 4.0773426 -0.015836826
0.950697 4.3523568 -0.016904943
0.948078 4.2607638 -0.0165490245
0.904995 3.99373065 -0.01551186
1.0148817 4.399416 -0.0170879205
1.0216185 4.3516344 -0.016902411
1.03494105 4.33306665 -0.016830099
1.0870563 4.47481665 -0.0173806515
1.089891 4.41233145 -0.0171378315
1.1288079 4.4953938 -0.0174605085
1.09408125 4.2875595 -0.0166534875
1.1330844 4.37047485 -0.016975497
1.1765292 4.4676324 -0.01735272
1.2013275 4.492086 -0.01744773
1.1122749 4.09663725 -0.015911958
1.1876343 4.3093035 -0.016737915
1.1675889 4.1747784 -0.0162150675
1.1997471 4.22803395 -0.016422357
1.2696399 4.4108982 -0.017132175
1.3114764 4.4924724 -0.01744938
1.2091158 4.0847862 -0.015865518
1.31499225 4.381935 -0.017019915
1.2571632 4.1329872 -0.01605312
1.3344474 4.3289586 -0.016814001
1.37288865 4.3955646 -0.017072577
1.4118624 4.461912 -0.017330508
1.3185072 4.1138496 -0.015978384
1.4078088 4.3371984 -0.016846008
1.4378652 4.37475 -0.0169919895
1.41604905 4.2555474 -0.016529019
1.4077161 4.1792688 -0.016232769
1.5198228 4.458015 -0.017315373
1.4627379 4.2397602 -0.0164675745
1.384236 3.965304 -0.01540182
1.5385062 4.3562904 -0.016920288
1.43823825 4.0257675 -0.0156366675
1.4782605 4.091088 -0.015890115
1.5496383 4.24071375 -0.0164711715
1.5284619 4.1366241 -0.016066953
1.6063164 4.2997284 -0.016700715
1.6216929 4.293945 -0.016678224
1.5888312 4.16199465 -0.0161658585
1.66846095 4.3242696 -0.0167958495
1.7001036 4.3602624 -0.016935516
1.6935534 4.2983556 -0.016695294
1.62549075 4.0833066 -0.0158602365
1.7462016 4.3420104 -0.016864848
1.7049561 4.1968638 -0.016301205
1.6854684 4.1076216 -0.015954252
1.7974338 4.33728795 -0.016846599
1.8414585 4.4001819 -0.01709091
1.80417375 4.26943755 -0.0165826395
1.78359435 4.18035465 -0.0162370125
1.7802 4.13289 -0.0160524
1.8123642 4.16799225 -0.0161888355
1.9110345 4.3540584 -0.016911633
1.86516315 4.2103515 -0.016353276
1.9223394 4.2998061 -0.016700718
1.8567486 4.1155128 -0.015984906
1.926588 4.232058 -0.01643775
1.984737 4.3209636 -0.016783248
1.97401275 4.25982045 -0.0165456495
1.9819332 4.2395652 -0.016467048
2.0345004 4.3143219 -0.016757487
2.0295765 4.266864 -0.0165729375
1.9853586 4.1383899 -0.016073721
2.0512992 4.2398007 -0.016468044
2.1179067 4.3408659 -0.016860564
2.07260775 4.2127296 -0.0163625445
2.0930769 4.2193593 -0.016388445
2.1202968 4.2393138 -0.016465812
2.026035 4.01805 -0.01560645
2.12744535 4.1853108 -0.016255968
2.0862915 4.071567 -0.0158144025
2.18202195 4.22476995 -0.016409505
2.00168625 3.84518835 -0.014934942
-2.1331464 4.0977552 -0.0477477
-2.202576 4.264512 -0.0496896
-2.1204 4.138128 -0.0482205
-2.1341481 4.1984469 -0.04892277
-2.0529576 4.0714416 -0.04744224
-2.1000735 4.1988324 -0.048926595
-1.99299945 4.0175733 -0.04681443
-1.9599492 3.9837456 -0.0464202
-2.0520396 4.2058224 -0.04900896
-1.9793475 4.09109085 -0.047672505
-2.0631204 4.3004889 -0.05010885
-1.7202276 3.616515 -0.04214061
-1.9256475 4.08350145 -0.047583585
-2.02630395 4.33449225 -0.050505675
-1.96130595 4.2323679 -0.04931838
-1.8907314 4.1162751 -0.04796364
-1.901637 4.1772672 -0.04867236
-1.788807 3.9648945 -0.04620135
-1.8793926 4.20376635 -0.048983385
-1.85292075 4.18269375 -0.048737475
-1.748178 3.9829905 -0.04641015
-1.8122733 4.167765 -0.048563325
-1.78011 4.132665 -0.0481545
-1.79527575 4.20776475 -0.049030275
-1.75737345 4.1586762 -0.048459495
-1.76608725 4.2200715 -0.0491721
-1.7858553 4.3093404 -0.05021406
-1.6967673 4.1351523 -0.04818213
-1.65405825 4.07157195 -0.047444025
-1.734915 4.3139445 -0.0502665
-1.61430795 4.0552596 -0.047251125
-1.53401175 3.8934729 -0.045369585
-1.5856299 4.06656495 -0.04738644
-1.51718925 3.93221565 -0.045821265
-1.658283 4.343937 -0.05061525
-1.6216011 4.2937155 -0.050031
-1.4854953 3.97633395 -0.046334175
-1.5024243 4.0660566 -0.047377215
-1.580436 4.325016 -0.05039712
-1.6106994 4.4576382 -0.05194092
-1.4734758 4.124427 -0.04805736
-1.50344985 4.25705805 -0.049606305
-1.4879634 4.26247605 -0.049669515
-1.4284056 4.1402388 -0.0482457
-1.4761695 4.33000875 -0.0504531
-1.407672 4.1790042 -0.04869522
-1.39701675 4.19839575 -0.0489228
-1.4096733 4.28902425 -0.049976535
-1.31047395 4.03737705 -0.04704309
-1.35962145 4.24218465 -0.04943268
-1.3348455 4.21857375 -0.049157325
-1.3907298 4.4525559 -0.05188413
-1.2901728 4.1853966 -0.0487713
-1.2658065 4.161471 -0.04848945
-1.3019673 4.3385622 -0.0505548
-1.2516462 4.2283521 -0.04926852
-1.2441324 4.2618228 -0.0496614
-1.28199465 4.4538642 -0.051898095
-1.1546631 4.0690908 -0.04741407
-1.2442584 4.4489676 -0.05184102
-1.2273954 4.45368 -0.05189646
-1.1476038 4.2267 -0.04924872
-1.13536035 4.24552605 -0.04947012
-1.09626825 4.16280585 -0.048504435
-1.1066895 4.2685713 -0.04974039
-1.094037 4.28733825 -0.04995825
-1.1104512 4.4224248 -0.05153256
-1.04668335 4.2373674 -0.04937688
-1.0268175 4.2267645 -0.0492507
-1.003536 4.2015456 -0.04895856
-1.0078614 4.2930027 -0.05002263
-0.9911916 4.2968835 -0.05006673
-0.9844659 4.34456055 -0.050622165
-0.98061285 4.4069109 -0.051349095
-0.88663545 4.0590195 -0.047296365
-0.9776907 4.56111045 -0.053148345
-0.8456736 4.0217994 -0.04686222
-0.848064 4.113186 -0.0479304
-0.8646192 4.2782238 -0.049852665
-0.7808448 3.9431778 -0.0459486
-0.8538543 4.4026554 -0.05129943
-0.839295 4.420755 -0.0515115
-0.79717995 4.29127515 -0.05000544
-0.7775625 4.2796605 -0.0498684
-0.7580181 4.26793755 -0.04973112
-0.7411116 4.27088535 -0.0497658
-0.76926525 4.5399774 -0.05290224
-0.7291911 4.4098338 -0.05138265
-0.7116687 4.4126946 -0.05141841
-0.71501835 4.548819 -0.05300355
-0.680985 4.44789 -0.0518265
-0.6544116 4.3912044 -0.05116656
-0.6540408 4.5125304 -0.05258136
-0.627615 4.45572 -0.051921
-0.59963175 4.38389175 -0.0510822
-0.55045305 4.1483394 -0.04833675
-0.57206175 4.4480436 -0.05182866
-0.50972625 4.09311375 -0.04769325
-0.54344565 4.5120942 -0.05257656
-0.52526565 4.51423035 -0.052599285
-0.4987179 4.4417943 -0.05175813
-0.4937004 4.5630567 -0.05317056
-0.47374125 4.550112 -0.053019675
-0.45085731 4.5072141 -0.05252082
-0.42403332 4.4193984 -0.05149512
-0.399279645 4.3464051 -0.050647095
-0.3856104 4.392801 -0.05118687
-0.37155591 4.43918475 -0.051727005
-0.3345024 4.2014277 -0.048957225
-0.33665358 4.4569923 -0.05193246
-0.32496384 4.5480984 -0.05299632
-0.28430253 4.2201441 -0.04917375
-0.28229838 4.4607918 -0.05197716
-0.24464916 4.1324652 -0.04815234
-0.21297384 3.8638854 -0.04502358
-0.20335434 3.9845337 -0.04642764
-0.211041 4.494735 -0.0523755
-0.18565938 4.33070835 -0.050463735
-0.15579912 4.0167036 -0.04680486
-0.148261275 4.27213575 -0.049782375
-0.13129545 4.2876834 -0.04996134
-0.11380512 4.2881982 -0.04996563
-0.09697968 4.3186176 -0.05032368
-0.081833895 4.4539308 -0.05190075
-0.0632244 4.42424775 -0.05155125
-0.0443961 4.349478 -0.05068185
-0.026087388 4.2596166 -0.04963326
-0.0093389475 4.57467975 -0.053303325
0.008757177 4.2896997 -0.04998279
0.026914101 4.39460445 -0.051206145
0.04271211 4.1844978 -0.048759435
0.06129552 4.2892707 -0.0499785
0.08321157 4.5289128 -0.0527745
0.087214365 3.8837568 -0.045256365
0.10385712 3.9133557 -0.045598005
0.1303773 4.2576996 -0.04961196
0.154503855 4.45201515 -0.051878475
0.17207664 4.4363592 -0.05169492
0.19208358 4.48055985 -0.052209885
0.20330283 4.32992805 -0.050455065
0.22858251 4.47885555 -0.05218746
0.2187522 3.9687195 -0.04624515
0.26326377 4.4468919 -0.051816105
0.26240487 4.1464407 -0.04831434
0.289343355 4.29496935 -0.050045625
0.29503296 4.1291946 -0.04811508
0.31067025 4.11299625 -0.04792425
0.351168 4.4107515 -0.051396375
0.36655179 4.37939775 -0.051030345
0.380364 4.333035 -0.05049045
0.396535455 4.3165329 -0.050299005
0.42116823 4.3895376 -0.05114718
0.431449545 4.31319495 -0.05025999
0.46442175 4.4606016 -0.051976665
0.4614324 4.2648177 -0.04969536
0.44683785 3.97972845 -0.046373895
0.520065 4.469535 -0.0520785
0.5416521 4.4972028 -0.05240304
0.53567595 4.30149045 -0.05012127
0.5318835 4.1356392 -0.04818852
0.5682096 4.2821568 -0.049896
0.6219909 4.5473589 -0.05298696
0.5983263 4.2477864 -0.04949802
0.55292265 3.81486945 -0.044452005
0.65220075 4.37636925 -0.0509937
0.66055545 4.3144533 -0.050271705
0.6800826 4.326564 -0.0504138
0.6639057 4.1165406 -0.04796751
0.64354785 3.8919003 -0.045347775
0.731679 4.3181544 -0.05031744
0.7282896 4.1969946 -0.0489048
0.78687 4.430385 -0.051624
0.79633125 4.38296265 -0.05107212
0.81361665 4.37975505 -0.05103648
0.82530675 4.34707575 -0.050652975
0.8224416 4.2406848 -0.04941216
0.8828208 4.45814505 -0.05194935
0.8883888 4.3958382 -0.051223185
0.8692656 4.21601565 -0.04912866
0.9166608 4.3593957 -0.05079591
0.9242478 4.3117893 -0.05024313
0.9666567 4.425357 -0.05156499
0.8535567 3.8359158 -0.04469589
0.9910953 4.37381685 -0.050963055
0.9574776 4.150731 -0.04836378
1.0010052 4.2637986 -0.04968234
1.0627725 4.4495535 -0.051848475
1.076388 4.4308152 -0.05162832
1.09703925 4.441227 -0.0517524
1.0666176 4.2478554 -0.04949838
1.1162886 4.37453835 -0.05097435
1.06528275 4.10886285 -0.047879355
1.17266325 4.45289685 -0.051884535
1.15086015 4.30348545 -0.05014548
1.20655605 4.443825 -0.05177862
1.1476944 4.16448 -0.04852656
1.110945 3.9722925 -0.046286625
1.20789225 4.256673 -0.049599825
1.25710155 4.3673814 -0.050890365
1.23992925 4.24742475 -0.049493625
1.2388743 4.18520565 -0.04876578
1.27178925 4.2379995 -0.049383
1.3007253 4.2762702 -0.04982709
1.2724992 4.1280624 -0.0481032
1.3952016 4.4668728 -0.05205096
1.3529451 4.27577475 -0.049823865
1.34131005 4.18505085 -0.04876692
1.3058433 4.0231107 -0.04687686
1.4471397 4.40301825 -0.051304815
1.40648805 4.22685945 -0.04925448
1.393308 4.1363613 -0.04819833
1.4229306 4.1738445 -0.04863348
1.5262416 4.4238168 -0.0515502
1.3792086 3.95093295 -0.046039185
1.5583932 4.4126316 -0.05141916
1.4633835 4.0961775 -0.0477282
1.55463075 4.30246725 -0.05013285
1.57014 4.29684 -0.0500688
1.5388152 4.1645424 -0.04852476
1.6324701 4.36975215 -0.050918475
1.64809785 4.36387425 -0.0508485
1.6636323 4.3579497 -0.050778525
1.598178 4.1421204 -0.04826724
1.5529365 3.98271825 -0.0464094
1.6824645 4.2702606 -0.04976019
1.6531401 4.1528088 -0.04838775
1.6621605 4.13303715 -0.04815855
1.761318 4.3355988 -0.0505206
1.822032 4.440432 -0.0517392
1.6882362 4.0737816 -0.04746924
1.68502095 4.0263633 -0.04691502
1.74569655 4.1310438 -0.048137505
1.8247065 4.2767445 -0.04983405
1.7860437 4.14644055 -0.048315015
1.8003111 4.140255 -0.048242775
1.838601 4.18900725 -0.048810675
1.8832965 4.2512625 -0.04953645
1.8916362 4.23115245 -0.049302495
1.8073119 4.00591065 -0.046679295
1.9078515 4.1909184 -0.04883142
1.9282956 4.1980554 -0.04891656
1.9802253 4.2731946 -0.04979412
1.82303835 3.89968425 -0.045439275
2.0280075 4.30056465 -0.050112945
2.09391 4.402125 -0.05129475
2.0047302 4.17877695 -0.048690675
2.06427 4.2666162 -0.04971786
2.0388855 4.178862 -0.0486948
2.0129208 4.0914144 -0.0476748
1.99299945 4.0175733 -0.04681443
1.892079 3.7829736 -0.04408083
2.0664639 4.0982274 -0.04775436
2.1477414 4.2251886 -0.04923438
1.9836 3.871152 -0.0451095
2.1750438 4.2112056 -0.04906848
2.181627 4.190886 -0.048832875
-2.216064 4.257024 -0.0826752
-2.133513 4.130874 -0.0802218
-2.12700675 4.1511036 -0.080615865
-2.16793995 4.26491835 -0.08282835
-2.16756855 4.2987357 -0.08348247
-2.1133035 4.225284 -0.082059075
-2.1194541 4.272489 -0.08297415
-1.96639245 3.99680325 -0.077619465
-2.01897015 4.138053 -0.080361855
-1.9399743 4.0096782 -0.077868945
-1.9590891 4.0837044 -0.07930671
-1.96482525 4.13081325 -0.080222625
-1.8103227 3.8389233 -0.074554935
-1.96259805 4.1981976 -0.08152965
-1.73410875 3.74207625 -0.07267425
-1.87172505 4.0749813 -0.079137825
-1.8455283 4.05400545 -0.07872876
-1.9551609 4.3336119 -0.0841635
-1.8118752 4.0526988 -0.07870788
-1.8952596 4.2782688 -0.08308404
-1.7901972 4.0787307 -0.0792099
-1.746306 4.0160658 -0.07799466
-1.8511272 4.2975504 -0.08345844
-1.7538939 4.1107461 -0.0798342
-1.7630307 4.1720394 -0.08102358
-1.7485347 4.1781549 -0.08114136
-1.7741853 4.28121045 -0.08314263
-1.66812225 4.065375 -0.07895178
-1.74419685 4.2934932 -0.08338365
-1.734729 4.3134795 -0.08376975
-1.73616405 4.3613733 -0.0846978
-1.6602903 4.2139872 -0.08183898
-1.6181451 4.14996615 -0.080595405
-1.64658825 4.26760575 -0.0828807
-1.46023605 3.82509855 -0.0742833
-1.59492375 4.22310525 -0.082014975
-1.564053 4.1866467 -0.08130483
-1.4814585 4.0093515 -0.07786485
-1.5648096 4.282296 -0.08316528
-1.4881926 4.1186454 -0.07998756
-1.4632095 4.0957425 -0.07953975
-1.5033144 4.2565614 -0.082665135
-1.47794205 4.23370545 -0.08221902
-1.4624688 4.2390426 -0.08232666
-1.42763775 4.18759875 -0.081327075
-1.364409 4.050648 -0.078664275
-1.3921488 4.1837229 -0.08124984
-1.3392951 4.0748136 -0.07913334
-1.3751694 4.23666045 -0.082279395
-1.3640652 4.2559764 -0.08265477
-1.3754328 4.34682 -0.08441928
-1.3324176 4.2659892 -0.08284698
-1.25911575 4.0845915 -0.0793269
-1.265676 4.1609925 -0.08080995
-1.3104528 4.3668384 -0.08480688
-1.23022965 4.15600785 -0.080713365
-1.2524046 4.2901719 -0.08331633
-1.2403716 4.30923285 -0.0836901
-1.25684265 4.42931925 -0.0860214
-1.2279624 4.3907328 -0.085272
-1.175457 4.26521325 -0.082831575
-1.1199645 4.12490475 -0.080109225
-1.177848 4.4044128 -0.08553648
-1.0999584 4.1768352 -0.08111664
-1.0613916 4.0939209 -0.07950708
-1.0456983 4.0979394 -0.07958322
-1.022658 4.072824 -0.0790944
-1.0897092 4.41160425 -0.08567325
-1.0762512 4.4303136 -0.08603808
-0.99295425 4.15730925 -0.08073765
-1.0145844 4.3217184 -0.08392932
-0.9978456 4.3256256 -0.0840048
-0.9744336 4.300191 -0.08351217
-1.0033254 4.508889 -0.08756286
-0.9569196 4.38090315 -0.08508045
-0.9241155 4.3112601 -0.08372826
-0.9319569 4.4322426 -0.08607453
-0.914607 4.4358666 -0.08614701
-0.9061245 4.4835 -0.0870714
-0.8215083 4.1486571 -0.08056881
-0.7709175 3.9751965 -0.0772011
-0.82521825 4.34654475 -0.0844113
-0.7560054 4.06962 -0.0790326
-0.7560279 4.1610933 -0.08080992
-0.7526862 4.23788505 -0.08230299
-0.7564095 4.3590675 -0.084654675
-0.7065369 4.1698071 -0.08097912
-0.7046352 4.2613344 -0.08275824
-0.67576155 4.1900697 -0.081372405
-0.69867 4.444605 -0.0863145
-0.6900192 4.506648 -0.08752008
-0.6675861 4.4796717 -0.08699865
-0.6260283 4.3190802 -0.08387784
-0.5773644 4.0987656 -0.07959978
-0.60767265 4.44279615 -0.08628243
-0.5701392 4.29654855 -0.08344008
-0.5318418 4.1351805 -0.08030586
-0.51335025 4.12238325 -0.08005854
-0.5308464 4.4073216 -0.08559432
-0.4992192 4.2902352 -0.08331984
-0.4802658 4.27731885 -0.08306928
-0.471069 4.3537638 -0.08455152
-0.4689909 4.5048132 -0.08748789
-0.4060212 4.058988 -0.0788256
-0.42684477 4.4487228 -0.08639616
-0.38551233 4.1965383 -0.081497025
-0.3672018 4.183116 -0.0812364
-0.343992 4.10986125 -0.079814625
-0.32969925 4.1411223 -0.08042418
-0.316281 4.187274 -0.0813204
-0.3206475 4.487715 -0.0871515
-0.279228465 4.14482025 -0.080494815
-0.27942105 4.4153535 -0.08574765
-0.252596925 4.2667065 -0.082862325
-0.226978125 4.1179875 -0.079971375
-0.2094456 4.1038761 -0.07970112
-0.20257776 4.3144272 -0.0837864
-0.18242598 4.2552714 -0.08263974
-0.16856685 4.345911 -0.0843987
-0.15708681 4.5264213 -0.08790465
-0.13954056 4.5569904 -0.08850048
-0.11657298 4.3926267 -0.08530695
-0.10067031 4.4830266 -0.08706282
-0.07879014 4.2884556 -0.08328606
-0.06107265 4.27376025 -0.082999125
-0.04561635 4.4689272 -0.08678952
-0.02516553 4.1091369 -0.07979976
-0.009001251 4.4091621 -0.08562897
0.008633853 4.2291963 -0.08213391
0.026543205 4.33408965 -0.08416836
0.04255485 4.1689992 -0.08096472
0.06107265 4.27376025 -0.082999125
0.07631073 4.1535042 -0.08066517
0.09966024 4.4380464 -0.08618928
0.12015372 4.5275538 -0.0879273
0.136327455 4.4520597 -0.08646264
0.14356278 4.1367294 -0.0803367
0.1627542 4.196052 -0.0814884
0.185637705 4.33018815 -0.084094665
0.20961171 4.4642337 -0.08669565
0.2117388 4.14880905 -0.08057376
0.2476125 4.49235 -0.0872415
0.268550415 4.5361827 -0.088095735
0.27373791 4.3255497 -0.08400363
0.30039741 4.4590485 -0.08659731
0.30140865 4.2184521 -0.08192241
0.3298359 4.3667286 -0.08480556
0.34874325 4.3803207 -0.08506962
0.36400608 4.34898045 -0.084458385
0.363267495 4.1382969 -0.08036601
0.38962812 4.2413412 -0.0823671
0.399629835 4.1650794 -0.08088768
0.440353875 4.40221125 -0.085491
0.44569665 4.2810642 -0.083142465
0.496881 4.5923262 -0.08918448
0.5053668 4.5008721 -0.08741088
0.5165532 4.4392017 -0.08621289
0.53802 4.46688 -0.086751
0.5522685 4.4349105 -0.08612796
0.5471466 4.2541785 -0.08261682
0.5800032 4.3708833 -0.08488368
0.61173735 4.47251385 -0.08685957
0.6254781 4.4403294 -0.086233095
0.623877 4.304238 -0.0835896
0.67421775 4.52417175 -0.087862875
0.6514326 4.2546315 -0.082625865
0.6916833 4.40015895 -0.085451355
0.65188305 4.0420107 -0.078497055
0.69240195 4.1873529 -0.081321465
0.75414045 4.45075155 -0.08643516
0.7641018 4.403397 -0.08551557
0.7631766 4.29694965 -0.08345007
0.78015645 4.29389415 -0.08338896
0.81900585 4.408755 -0.08561865
0.8503944 4.4791512 -0.08698656
0.81945675 4.22548665 -0.08206191
0.873945 4.413465 -0.0857115
0.9031536 4.4688 -0.08678592
0.920664 4.4652432 -0.08671752
0.87949575 4.1827455 -0.081229275
0.85182075 3.97398465 -0.07717809
0.9473184 4.3369476 -0.0842268
0.9381744 4.216104 -0.08187696
0.9711192 4.2855645 -0.083228115
0.9135681 3.9602856 -0.0769098
1.0351503 4.4093208 -0.08563059
0.9894702 4.1427222 -0.08045436
0.991284 4.080552 -0.0792456
0.9997992 4.0476105 -0.0786045
1.1030097 4.3928316 -0.08530896
1.05682275 4.1415345 -0.08042985
1.1027934 4.25361285 -0.08260842
1.0846812 4.1188236 -0.07999002
1.08486 4.056696 -0.0787836
1.1278239 4.15385145 -0.080671395
1.1794416 4.2796716 -0.08311236
1.2198837 4.3618464 -0.084711
1.2936882 4.559169 -0.0885432
1.2735588 4.42453005 -0.0859293
1.2650127 4.33336155 -0.084155085
1.16212005 3.92591745 -0.076244805
1.3061421 4.3524738 -0.08452791
1.30932 4.304475 -0.0835965
1.2105183 3.9269406 -0.07626516
1.319004 4.223043 -0.08201295
1.3482861 4.2610275 -0.08275311
1.327446 4.141722 -0.08043585
1.3334976 4.1082768 -0.07978608
1.4797806 4.5022416 -0.08743404
1.4347656 4.31179605 -0.08373708
1.4314326 4.2496272 -0.082528485
1.41795885 4.15920825 -0.080775705
1.5113808 4.3808166 -0.08508006
1.54714335 4.43193915 -0.08606874
1.5282864 4.3272684 -0.08403831
1.49852835 4.19460525 -0.081459675
1.5697374 4.3443246 -0.08437044
1.595694 4.366815 -0.0848067
1.55943 4.22037 -0.081963
1.5902955 4.25689245 -0.082669005
1.632015 4.321317 -0.0839223
1.66349235 4.35752985 -0.0846231
1.58180445 4.09969995 -0.07961982
1.688973 4.3316145 -0.08412315
1.7372574 4.4093376 -0.08563284
1.6751487 4.2080982 -0.0817212
1.790688 4.452624 -0.086472
1.7724201 4.3629672 -0.0847329
1.58841675 3.871125 -0.07517934
1.72251 4.156515 -0.080721
1.736955 4.150485 -0.080604
1.8447606 4.3654452 -0.08477964
1.80686385 4.23489615 -0.0822453
1.8748596 4.3526472 -0.08452842
1.818072 4.1811096 -0.08119992
1.7841696 4.0649976 -0.0789432
1.90133415 4.2919812 -0.083350335
1.7812692 3.98424105 -0.077378355
1.7948007 3.9781737 -0.0772605
1.8144588 3.9857562 -0.07740336
1.98440415 4.3202979 -0.083901975
1.8665316 4.0278348 -0.07822392
2.0070582 4.2933024 -0.0833766
2.0406111 4.3272669 -0.084038955
1.83598425 3.85994025 -0.074962125
1.99152435 4.1513154 -0.080619735
2.0379528 4.2121872 -0.08180172
2.01897015 4.138053 -0.080361855
2.118672 4.30632 -0.0836304
2.04613965 4.1246985 -0.080103975
2.0596323 4.1179752 -0.079975035
2.10004305 4.1648187 -0.08088177
2.11357155 4.15796115 -0.08075115
2.16804225 4.2311892 -0.082171155
2.0165139 3.9043422 -0.07582254
2.1675876 4.1639016 -0.08086668
-2.19495555 4.21649625 -0.11464305
-2.0919456 4.0503288 -0.110124
-1.90789965 3.72343635 -0.10123515
-2.06568 4.0637808 -0.1104888
-2.119971 4.2043815 -0.1143117
-2.1062649 4.2112581 -0.1145001
-2.1191202 4.2718689 -0.11614473
-2.0918568 4.2518748 -0.11560386
-1.8542628 3.8005281 -0.10333044
-1.96578585 4.06309365 -0.110468505
-1.9588173 4.0830702 -0.11101218
-1.97743305 4.1573019 -0.113029725
-1.874028 3.973959 -0.10804668
-1.9178661 4.1024586 -0.11154219
-1.9797543 4.2721584 -0.11615331
-1.8651969 4.0607715 -0.11040453
-1.944669 4.27174575 -0.11614491
-1.8870408 4.1826375 -0.11372184
-1.7320449 3.8741568 -0.105331185
-1.882785 4.250193 -0.11555715
-1.868277 4.25661 -0.11573385
-1.823778 4.19422275 -0.11403645
-1.868643 4.33816425 -0.117950175
-1.72420245 4.04115855 -0.109875
-1.7744328 4.1990304 -0.11416872
-1.7019513 4.0668579 -0.11057193
-1.7624256 4.2528096 -0.115626945
-1.707705 4.161825 -0.113157
-1.693125 4.167765 -0.1133145
-1.672905 4.15979265 -0.113098245
-1.7081526 4.2910098 -0.11666886
-1.649025 4.185405 -0.113796
-1.7050362 4.3728291 -0.118891485
-1.60313175 4.1550003 -0.11296989
-1.58834115 4.1607027 -0.113125815
-1.64238 4.34868 -0.11823555
-1.574325 4.21407 -0.1145745
-1.4448216 3.9102507 -0.10631415
-1.50796845 4.12668525 -0.112199955
-1.477782 4.089783 -0.1111947
-1.5487536 4.335147 -0.117864975
-1.5230175 4.31244075 -0.1172481
-1.3640058 3.9074148 -0.10623654
-1.4769159 4.2808953 -0.11639382
-1.4129004 4.1443122 -0.11267988
-1.38334185 4.10684895 -0.11166093
-1.43453835 4.31106885 -0.117211005
-1.4093121 4.28785035 -0.116581815
-1.32865215 4.09332315 -0.11129286
-1.3638417 4.2553059 -0.11569701
-1.35711 4.288905 -0.1166085
-1.3277682 4.250961 -0.11558052
-1.280988 4.155555 -0.1129869
-1.2741858 4.189032 -0.11389314
-1.3274646 4.4235576 -0.12027246
-1.3108788 4.428501 -0.12040644
-1.2689889 4.3470333 -0.1181877
-1.182123 4.10677875 -0.111658725
-1.2771252 4.5007092 -0.12236796
-1.14296625 4.08670395 -0.111112875
-1.1952 4.336785 -0.1179135
-1.178685 4.341285 -0.118035
-1.0420791 3.8966802 -0.105946995
-1.1265165 4.2776475 -0.116302275
-1.12896 4.35447 -0.1183905
-1.112265 4.358745 -0.1185075
-1.066311 4.246629 -0.11546118
-1.0643568 4.3089312 -0.11715384
-1.0335924 4.254732 -0.11568018
-1.0311012 4.317012 -0.11737584
-1.0144068 4.3209636 -0.1174824
-0.9673335 4.19337135 -0.11401362
-0.9477468 4.1824497 -0.11371503
-0.9640572 4.3324632 -0.1177932
-0.9279855 4.248297 -0.11550555
-0.9491256 4.4278032 -0.12038475
-0.9102225 4.32875625 -0.117691725
-0.91144305 4.42041075 -0.120184785
-0.81687375 4.04179875 -0.10989
-0.87381 4.4127 -0.1199745
-0.8478756 4.3719588 -0.11886831
-0.8614452 4.537302 -0.12336324
-0.7257555 3.90674925 -0.10621995
-0.745179 4.1013618 -0.11150997
-0.7709121 4.3404984 -0.1180116
-0.72038565 4.1514378 -0.112873485
-0.754005 4.44993885 -0.120988455
-0.73386 4.438125 -0.1206675
-0.6971208 4.3225782 -0.11752416
-0.66826515 4.25123055 -0.115584945
-0.63314865 4.1352822 -0.11243421
-0.6563997 4.4047476 -0.11975931
-0.61729395 4.2589365 -0.11579589
-0.5479599 3.8901891 -0.10576809
-0.6014868 4.3974648 -0.11956032
-0.591705 4.459275 -0.1212435
-0.54510525 4.23853425 -0.115241175
-0.5484732 4.4043468 -0.11975124
-0.5325507 4.4214093 -0.12021372
-0.5147307 4.4235477 -0.120271635
-0.4785066 4.2616431 -0.11586861
-0.48872385 4.51695735 -0.122810445
-0.4409952 4.2355476 -0.11516058
-0.42684213 4.2671343 -0.11601876
-0.38953392 4.0598448 -0.1103844
-0.35389602 3.8523528 -0.10474155
-0.37893969 4.316793 -0.117370125
-0.3501834 4.18383 -0.1137528
-0.36177216 4.5439488 -0.12354408
-0.34106823 4.5154587 -0.12277206
-0.28746147 4.02325815 -0.10938885
-0.2801823 4.1590329 -0.11307789
-0.245279475 3.8758314 -0.10537674
-0.241920315 4.0863186 -0.111101445
-0.21950985 3.9824988 -0.10828062
-0.220872585 4.32776055 -0.117664905
-0.1933965 4.11893625 -0.111989625
-0.17853855 4.1646207 -0.11323218
-0.16795524 4.3301448 -0.11772993
-0.13833729 3.9861297 -0.10837638
-0.13584624 4.4362704 -0.12061704
-0.111384 4.196976 -0.1141098
-0.09896922 4.4072658 -0.11982852
-0.08098083 4.4076186 -0.11983734
-0.062345295 4.36294845 -0.11862324
-0.04315869 4.2282234 -0.11495871
-0.025528323 4.1683737 -0.11333226
-0.008326056 4.0784904 -0.11089032
0.008632161 4.2284349 -0.11496717
0.0280076925 4.57321575 -0.12433935
0.04162824 4.0782864 -0.11088216
0.058917375 4.12306125 -0.112101
0.077400045 4.2127239 -0.11453841
0.09021684 4.0175076 -0.10923144
0.1177488 4.4368032 -0.12063036
0.13492836 4.4062956 -0.11980206
0.146138265 4.21091145 -0.11448783
0.18074076 4.6597752 -0.12669207
0.177896325 4.14964005 -0.11282487
0.2180106 4.6431645 -0.12624285
0.205587285 4.02826155 -0.109522005
0.2343639 4.2519912 -0.11560788
0.25698495 4.340778 -0.11801985
0.271796175 4.2948402 -0.11676882
0.29328435 4.35352005 -0.118365705
0.31524585 4.41212325 -0.11996175
0.30944601 4.0968069 -0.11138922
0.29393988 3.6919584 -0.100379565
0.338927505 4.04934975 -0.11009646
0.37238364 4.242108 -0.1153395
0.40739193 4.4346852 -0.120574575
0.42676878 4.4479182 -0.12093585
0.437289315 4.37157465 -0.11885838
0.4472064 4.2952032 -0.11678256
0.4677555 4.3231605 -0.11754135
0.4885452 4.3510482 -0.11829942
0.5251293 4.5129123 -0.122701365
0.4984818 4.1385582 -0.11252328
0.48361995 3.88356255 -0.105591465
0.5393673 4.1939181 -0.11402811
0.6074838 4.578189 -0.12447666
0.59539065 4.3528959 -0.11834856
0.61279485 4.35047865 -0.118282635
0.6409533 4.422171 -0.12023406
0.6276684 4.2119472 -0.11451732
0.66491955 4.3427874 -0.11807607
0.64032375 4.07347875 -0.110752125
0.6517602 4.04131455 -0.10987704
0.7167366 4.33456875 -0.117851925
0.73647 4.3464519 -0.11817477
0.6768036 3.9002832 -0.10604484
0.71060265 4.0009356 -0.1087794
0.809511 4.4554362 -0.12113673
0.8051778 4.3342803 -0.11784402
0.7803351 4.1100885 -0.11174787
0.799344 4.121712 -0.1120644
0.8534211 4.309737 -0.117175095
0.8851941 4.3798401 -0.1190808
0.89933085 4.36166775 -0.118587645
0.900966 4.284735 -0.11649486
0.8988408 4.1932176 -0.11400675
0.93118545 4.2629463 -0.115903845
0.9640572 4.3324632 -0.1177932
1.0206504 4.5041766 -0.12246234
0.970704 4.2079824 -0.11441088
1.0349691 4.4085507 -0.1198638
0.9823329 4.112829 -0.11182428
1.0123542 4.167306 -0.11330319
1.0679526 4.3234884 -0.11754963
1.095525 4.362975 -0.1186245
1.14563295 4.48950735 -0.122062725
1.1553024 4.4560743 -0.121152945
1.1494287 4.3646505 -0.118667745
1.1273049 4.2153678 -0.114611805
1.1472534 4.2255174 -0.1148874
1.11552 4.047666 -0.1100526
1.26009 4.5054828 -0.122499
1.1952582 4.2122022 -0.11452386
1.1779752 4.092369 -0.11126694
1.2185655 4.1743035 -0.1134915
1.2512934 4.2272055 -0.11493342
1.25419545 4.1794002 -0.113634045
1.26982215 4.174686 -0.113503095
1.2898224 4.184214 -0.11376612
1.3680036 4.379778 -0.11908296
1.3480626 4.2603123 -0.11583111
1.36841835 4.26958545 -0.116085255
1.34716995 4.15037295 -0.11284398
1.3999479 4.25935965 -0.115807185
1.35878715 4.08342165 -0.111021645
1.4168484 4.2063228 -0.11436552
1.3112877 3.84626235 -0.10457619
1.47202545 4.26672015 -0.11600841
1.37883195 3.9498867 -0.107391285
1.4930565 4.22760585 -0.11494158
1.538664 4.306905 -0.117097125
1.4879736 4.1179884 -0.11196156
1.58002155 4.32386475 -0.117561045
1.611132 4.3603515 -0.11855175
1.51659975 4.0595541 -0.110373435
1.552314 4.110204 -0.111751665
1.6364727 4.2867846 -0.11655387
1.63551825 4.2389397 -0.11525211
1.579746 4.051503 -0.11015505
1.59955425 4.05984285 -0.11038212
1.6416012 4.1238276 -0.11212332
1.728855 4.29891615 -0.116880795
1.6254 4.0010544 -0.10878192
1.6280121 3.9676065 -0.10787634
1.7107584 4.1281344 -0.11223723
1.70774025 4.08069075 -0.110948025
1.82696535 4.3233438 -0.117548715
1.8007029 4.2204591 -0.11475
1.7915244 4.1591289 -0.11308239
1.853676 4.2629805 -0.1159059
1.7236362 3.927066 -0.10677381
1.8767115 4.2364827 -0.115184385
1.9523757 4.3669824 -0.118730205
1.8438732 4.08695625 -0.11112036
1.950882 4.2853935 -0.11651598
1.94656455 4.23791925 -0.115220835
1.97344935 4.2585528 -0.115783395
1.93691775 4.1432115 -0.112650225
1.95078 4.136715 -0.1124718
2.0354034 4.2791772 -0.1163433
2.06908185 4.3129119 -0.11726121
2.0115018 4.1575842 -0.11303754
1.9857708 4.0700691 -0.11065884
2.0322786 4.1307771 -0.112311345
2.0791368 4.1912676 -0.11395332
2.07272565 4.14419985 -0.11267685
2.1402255 4.24455075 -0.11540385
2.072475 4.0771485 -0.11085225
1.96260645 3.83020155 -0.10413795
2.1745224 4.2102102 -0.114471
2.22265215 4.26970125 -0.11608965
-2.1322686 4.0959996 -0.14318304
-2.13969555 4.1427999 -0.14482026
-2.146818 4.1897334 -0.14646216
-2.072109 4.07637075 -0.142497525
-2.0115894 3.9893409 -0.13945506
-2.14608 4.290912 -0.1499952
-2.1187386 4.2710103 -0.149301
-2.0120544 4.0895904 -0.14296056
-2.070873 4.24442025 -0.148369725
-1.8805392 3.8868336 -0.13587264
-1.94544 4.055265 -0.141759
-1.9706247 4.142934 -0.14482368
-2.00152545 4.2443739 -0.14837139
-1.9809972 4.2374592 -0.14813136
-1.9604196 4.2305019 -0.147885165
-1.9524492 4.2507036 -0.14859
-1.9194462 4.21632045 -0.147388365
-1.7509878 3.8811156 -0.13567248
-1.9275165 4.31132625 -0.150713325
-1.8095454 4.0848648 -0.14279415
-1.843803 4.2008139 -0.14684787
-1.7696064 4.0696152 -0.14226204
-1.743714 4.0481595 -0.14151249
-1.81798605 4.26100185 -0.14895036
-1.680696 3.977208 -0.13903056
-1.73053725 4.13517 -0.14455155
-1.7563176 4.2380847 -0.14815143
-1.764303 4.299669 -0.15030195
-1.6250976 4.0002336 -0.13983408
-1.7005152 4.228488 -0.1478124
-1.6024761 4.025481 -0.140718435
-1.7366412 4.407726 -0.15407844
-1.6665372 4.2741621 -0.14940909
-1.6244067 4.21010205 -0.14717094
-1.5185196 3.9777324 -0.13905066
-1.5466656 4.0953438 -0.1431603
-1.5844581 4.2412578 -0.14826237
-1.5380604 4.1625444 -0.14550768
-1.5333888 4.1962125 -0.14668752
-1.528425 4.22991 -0.1478655
-1.44755625 4.051866 -0.141638805
-1.48275765 4.19843655 -0.14676552
-1.343952 3.8499288 -0.13458288
-1.4765988 4.2799893 -0.14961684
-1.354542 3.973158 -0.1388898
-1.507464 4.475331 -0.15644475
-1.3348188 4.0114359 -0.14022873
-1.4136771 4.3011444 -0.15035523
-1.3700064 4.2207528 -0.14754564
-1.3864068 4.3257492 -0.15121215
-1.28895525 4.073562 -0.14240025
-1.3676823 4.3788141 -0.15307191
-1.27626735 4.14031515 -0.144732645
-1.21720725 4.00165515 -0.139883625
-1.2410064 4.1354064 -0.14456016
-1.2935808 4.3699848 -0.15276
-1.2687171 4.3460367 -0.15192261
-1.2357762 4.2931668 -0.15007578
-1.2359199 4.3555044 -0.1522533
-1.2032793 4.302375 -0.15039762
-1.1750145 4.26353175 -0.149038425
-1.1627472 4.2824244 -0.14969904
-1.134789 4.2433725 -0.148335645
-1.0957086 4.1606964 -0.145444425
-1.0572063 4.0777596 -0.142547085
-1.111995 4.357755 -0.152334
-1.047837 4.17296565 -0.145874925
-1.0425645 4.220631 -0.14753895
-1.0899966 4.4868516 -0.15684438
-0.9298809 3.8931804 -0.136093905
-1.0313163 4.39295955 -0.15356418
-1.0041855 4.3530648 -0.15217221
-1.01710635 4.48853955 -0.156906165
-0.9736038 4.3753866 -0.152951955
-0.9533616 4.364508 -0.15257004
-0.85149555 3.9723993 -0.138864465
-0.87915375 4.18107825 -0.146157975
-0.8718624 4.2285024 -0.14781744
-0.9057585 4.48171575 -0.1566663
-0.8502894 4.2940644 -0.15010698
-0.8391348 4.3267833 -0.15124977
-0.7605528 4.0060296 -0.14003784
-0.7721442 4.156398 -0.14529627
-0.7878906 4.3363971 -0.15158934
-0.7759788 4.3690044 -0.15272712
-0.76635195 4.41633465 -0.15438267
-0.7212672 4.2567552 -0.1488024
-0.6334104 3.8306877 -0.13390818
-0.6229548 3.8627739 -0.13502835
-0.6704208 4.2650496 -0.14909184
-0.67835625 4.43068665 -0.15488499
-0.64742745 4.34441355 -0.15186483
-0.634368 4.37663475 -0.152994375
-0.598026 4.2455127 -0.14840826
-0.5769318 4.2181668 -0.14745564
-0.5462163 4.1164416 -0.14389596
-0.5086452 3.9550476 -0.13825749
-0.5316675 4.2694407 -0.14924574
-0.50373465 4.18224945 -0.146197275
-0.51459705 4.4224785 -0.15459741
-0.4750326 4.2308616 -0.14789868
-0.4644 4.292352 -0.15004656
-0.4005063 3.8468574 -0.13447476
-0.42226713 4.22135535 -0.14756469
-0.422370675 4.40212275 -0.1538838
-0.40043712 4.358976 -0.15237582
-0.39589029 4.5099321 -0.15765306
-0.34509798 4.1230674 -0.14412996
-0.329562135 4.1393772 -0.14470203
-0.312759315 4.14066525 -0.14474358
-0.308760375 4.32134475 -0.151061745
-0.29522973 4.38238635 -0.153196515
-0.2679444 4.233963 -0.14800617
-0.26046342 4.3995924 -0.15379875
-0.23678361 4.2958734 -0.150171315
-0.211651545 4.14706395 -0.14496795
-0.20389755 4.3425615 -0.15180195
-0.179781 4.193574 -0.1465968
-0.15455265 3.9845736 -0.13928691
-0.1507797 4.3447365 -0.15188025
