# .PCD v0.7 - Point Cloud Data file format
VERSION 0.7
FIELDS x y z
SIZE 4 4 4
TYPE F F F
COUNT 1 1 1
WIDTH 1587
HEIGHT 1
VIEWPOINT 0 0 0 1 0 0 0
POINTS 1587
DATA ascii
7.0287352 -723.90991 531.50061
12.12813 -722.28827 533.72711
7.8789229 -718.33466 531.12543
12.460885 -715.94928 532.9931
15.797747 -716.26794 534.63147
9.3560467 -711.40991 530.86194
12.682723 -711.72681 532.50391
16.018856 -712.04199 534.14093
9.5786047 -707.19366 530.37402
12.904563 -707.50702 532.01471
16.239969 -707.81866 533.65057
13.126405 -703.28992 531.52563
18.133129 -703.75122 533.97498
13.348252 -699.07544 531.03662
16.792755 -697.2724 532.4248
20.135735 -697.57361 534.05261
13.681032 -692.75903 530.30316
17.124437 -690.95215 531.68958
22.141914 -691.39514 534.12598
17.345566 -686.74213 531.19946
22.361917 -687.17999 533.63403
17.566704 -682.53485 530.70941
22.581926 -682.96753 533.14215
17.787848 -678.3302 530.21942
22.801941 -678.75769 532.65033
23.131975 -672.4483 531.91272
28.162989 -672.86481 534.33105
21.788704 -666.00739 530.36835
26.813335 -666.41699 532.7865
27.032612 -662.21448 532.2937
32.074615 -662.61578 534.70007
27.251904 -658.01459 531.8009
32.292728 -658.41083 534.20557
27.471207 -653.81738 531.30817
32.619911 -652.10876 533.46387
36.100227 -650.26434 534.81073
28.322309 -648.26807 530.91846
32.947121 -645.81207 532.72229
36.317562 -646.06409 534.31525
29.804831 -641.36755 530.6311
33.165279 -641.6178 532.22791
36.534912 -641.86646 533.81976
33.819855 -629.05109 530.74506
37.295761 -627.19641 532.08582
41.835987 -626.81116 534.11169
34.03809 -624.86749 530.25085
37.621902 -620.91876 531.34283
42.688473 -621.26404 533.7121
37.839363 -616.73724 530.84753
42.904678 -617.07758 533.21509
38.056843 -612.55841 530.35223
43.120907 -612.89386 532.7182
41.64653 -608.60309 531.43488
46.722931 -608.93152 533.79163
41.971588 -602.33929 530.69031
47.046078 -602.6604 533.04468
47.36927 -596.39465 532.29779
52.459854 -596.70581 534.63959
47.584766 -592.22113 531.79993
52.674049 -592.52747 534.14008
47.800293 -588.05023 531.302
52.888268 -588.35175 533.64063
48.015846 -583.88208 530.80408
53.209648 -582.09363 532.89148
56.612259 -582.28809 534.4422
49.923565 -579.81427 531.08636
51.834923 -575.74536 531.36511
56.932365 -576.03058 533.69147
52.049698 -571.58203 530.86621
57.145809 -571.86255 533.19104
60.555096 -572.04779 534.73407
53.959797 -567.51373 531.14337
57.359287 -567.69714 532.69055
60.767666 -567.87927 534.2326
54.174198 -563.35419 530.64398
57.572796 -563.53448 532.19012
60.98027 -563.71344 533.7312
54.388641 -559.19733 530.14453
57.893124 -557.29578 531.43945
63.006721 -557.55664 533.74622
58.213528 -551.06256 530.68878
61.618279 -551.23218 532.22681
65.03186 -551.40063 533.75977
58.427181 -546.91064 530.18829
61.83102 -547.07715 531.7254
66.954407 -547.32458 534.02075
62.043797 -542.92487 531.22394
67.165802 -543.1676 533.51782
62.256618 -538.77521 530.72247
67.377228 -539.01337 533.01489
72.725426 -535.09302 534.79272
62.469479 -534.62823 530.22095
67.694443 -532.78741 532.2605
72.935516 -530.93958 534.28833
68.011742 -526.56677 531.5061
73.145638 -526.78888 533.784
68.223328 -522.42334 531.00311
73.355804 -522.64087 533.2796
76.78907 -522.78442 534.79034
71.85421 -518.4248 532.0177
76.998314 -518.63611 534.28503
72.170326 -512.21448 531.26178
77.312256 -512.41907 533.52704
80.855949 -510.48102 534.77716
77.626297 -506.20743 532.76898
81.064346 -506.33786 534.27094
77.835716 -502.06995 532.26361
81.272781 -502.19742 533.76465
78.045181 -497.93518 531.75824
83.203613 -498.1214 534.00574
81.689796 -493.92468 532.75201
85.133499 -494.04517 534.24603
82.002686 -487.72754 531.99243
86.629593 -487.19275 533.89624
82.315681 -481.53586 531.23285
87.481018 -481.70291 533.46735
82.524422 -477.41165 530.72644
87.688248 -477.57434 532.95959
82.733208 -473.29016 530.21991
87.895531 -473.44849 532.45184
93.074898 -473.60483 534.67334
87.597801 -467.93536 531.52759
92.266708 -466.69482 533.3324
86.795593 -461.03909 530.18732
91.966125 -461.18292 532.40759
97.153603 -461.32489 534.61749
92.172607 -457.06503 531.89893
97.358536 -457.20273 534.10748
92.379135 -452.94986 531.39008
97.563515 -453.08328 533.59747
92.585732 -448.8374 530.88123
97.768555 -448.96655 533.0874
101.23499 -449.05142 534.55115
94.619759 -442.71536 530.85437
98.076225 -442.79688 532.3222
101.54108 -442.87756 533.78479
105.11584 -440.89886 534.98621
94.929115 -436.55542 530.09033
98.38401 -436.63269 531.55695
101.8473 -436.70911 533.01831
105.31894 -436.78467 534.47443
98.589287 -432.52682 531.04669
102.05151 -432.60043 532.50726
105.52209 -432.67322 533.96265
98.794624 -428.42371 530.53638
102.25579 -428.49451 531.99615
107.46423 -428.59906 534.17542
99.000023 -424.3233 530.026
102.56199 -422.34113 531.22925
107.76836 -422.43933 533.40692
102.86845 -416.19318 530.46228
108.072 -416.28522 532.63806
113.29211 -416.3757 534.80322
106.5383 -412.15695 531.40253
111.75266 -412.24368 533.56921
106.74192 -408.06183 530.89044
111.95467 -408.14441 533.05603
106.9456 -403.96945 530.3783
112.15673 -404.04791 532.54279
117.38432 -404.12488 534.69672
110.61958 -399.9296 531.31006
-6.872407 -248.88196 534.12787
81.498573 -247.27904 534.96552
-6.4855137 -242.78506 533.31543
-3.056555 -240.69899 534.70471
81.721901 -243.23053 534.42999
-6.0981088 -236.69432 532.50226
-2.799284 -236.63623 534.16168
82.057266 -237.16344 533.62622
85.60453 -235.08153 534.85748
-5.8395329 -232.63768 531.95972
-2.5417891 -232.57635 533.61829
82.392838 -231.10205 532.82208
85.827118 -231.03874 534.32068
-5.5807729 -228.58386 531.41675
-2.284117 -228.51932 533.07446
82.616669 -227.0649 532.28558
86.049759 -226.99878 533.78357
-5.1920719 -222.50908 530.60168
-1.8970505 -222.43971 532.25818
82.840958 -223.03064 531.74908
87.993027 -222.92719 533.99255
-1.509387 -216.36586 531.44116
83.065247 -218.99922 531.21216
88.2155 -218.89156 533.45471
-1.250689 -212.3205 530.896
83.401993 -212.95779 530.40637
86.830879 -212.88184 531.9021
91.453583 -212.10809 533.7984
-0.99174798 -208.27805 530.35046
87.166145 -206.84192 531.09491
92.323563 -206.72157 533.32733
87.38987 -202.81912 530.55646
92.545456 -202.69461 532.78796
194.14731 -201.04149 534.53143
87.613754 -198.79918 530.01776
92.767509 -198.6705 532.24835
194.32854 -197.03452 534.00226
92.490692 -193.32504 531.28143
194.50986 -193.03033 533.47302
198.08954 -192.944 534.77045
198.44981 -184.93945 533.71088
197.38562 -169.01404 530.9425
202.75047 -168.86395 532.88
206.33669 -168.76404 534.16431
199.35216 -164.97713 531.05969
202.92979 -164.87482 532.34918
206.51466 -164.77263 533.63318
210.19508 -162.67514 534.64575
203.28874 -156.90497 531.28711
206.87091 -156.79825 532.5705
210.46027 -156.69168 533.84833
203.46837 -152.92426 530.75586
207.04919 -152.81528 532.03894
212.43477 -152.65213 533.95245
203.6481 -148.94637 530.22449
207.22757 -148.83511 531.50726
212.61111 -148.66861 533.42029
207.49535 -142.8705 530.70941
212.87582 -142.69894 532.62183
218.27054 -142.5278 534.52319
213.14073 -136.73491 531.82312
218.53236 -136.55876 533.72388
222.13622 -136.44162 534.98358
211.52332 -132.82254 530.65515
216.90933 -132.64294 532.55823
222.30952 -132.46382 534.45026
211.70085 -128.8542 530.12244
217.08481 -128.67126 532.02515
222.48293 -128.48883 533.91675
217.34824 -122.71939 531.22522
222.74326 -122.53199 533.11633
226.3493 -122.40742 534.36951
219.40683 -116.70893 531.05701
223.00377 -116.58079 532.31549
226.60773 -116.45294 533.56842
230.21867 -116.3254 534.81573
219.58203 -112.74743 530.52319
223.1776 -112.61709 531.78143
226.78015 -112.48705 533.03412
230.38971 -112.35735 534.28125
223.35152 -108.6562 531.24725
226.95268 -108.52399 532.49969
232.36838 -108.32632 534.36719
223.61261 -102.72054 530.44568
227.2117 -102.58504 531.69775
232.62421 -102.3825 533.56482
227.47087 -96.651733 530.89551
232.88025 -96.444321 532.76208
238.30345 -96.237656 534.61749
227.64383 -92.699982 530.36047
233.05109 -92.489311 532.22681
238.47217 -92.279427 534.08191
231.41801 -88.608299 531.07111
236.83353 -88.394989 532.92877
242.2628 -88.182503 534.77521
1562.3445 -85.886612 534.89642
231.58978 -84.660034 530.53558
237.08806 -82.469162 532.12494
242.51413 -82.251862 533.97095
237.34279 -76.548996 531.3208
242.76566 -76.326897 533.16644
237.51276 -72.605995 530.78448
242.93349 -72.380699 532.62994
239.48676 -68.589508 530.86493
243.10143 -68.437332 532.0932
239.65622 -64.651115 530.32819
243.35355 -62.527966 531.28784
1558.1251 -57.949905 534.91473
1557.9092 -52.380234 534.67981
1557.765 -48.668377 534.52246
1560.8422 -46.904488 533.28656
1557.5483 -43.102486 534.2854
1560.6259 -41.343857 533.05182
1557.3313 -37.538502 534.0473
1560.4813 -37.638027 532.89459
1557.1138 -31.976906 533.80786
1560.2643 -32.081188 532.65771
1560.0469 -26.526255 532.41986
1559.9017 -22.824242 532.26056
1559.6836 -17.273149 532.02063
1559.465 -11.723991 531.77972
1559.3191 -8.0258455 531.61847
1549.6165 -2.0946269 534.77124
1559.0999 -2.4805796 531.37561
1549.3956 3.4625771 534.51996
1557.3037 3.1297274 531.69897
1549.2491 7.1663141 534.3515
1557.157 6.8254995 531.53491
86.70919 12.927266 534.49152
1549.0278 12.719553 534.09827
1556.9371 12.367393 531.28766
87.076431 18.837851 533.62085
1547.2168 18.342808 534.40063
1551.9771 18.125954 532.72632
1556.7167 17.907207 531.03967
1545.4791 22.117336 534.7854
1553.4106 21.748062 531.99731
1546.8464 27.593224 533.97266
1553.1891 27.288399 531.74506
1546.6238 33.140614 533.7146
1552.967 32.826721 531.49194
1544.885 36.91708 534.09436
1548.0652 36.757931 532.98962
1552.819 36.51759 531.32251
88.551331 42.408302 530.12836
91.965324 42.666634 531.64221
97.103043 43.052658 533.9035
194.72737 43.554619 534.91187
1543.574 43.13343 534.16986
1547.842 42.298965 532.73108
1552.5964 42.051861 531.06757
92.210602 46.586872 531.05823
97.346123 46.977077 533.31903
1542.8435 48.089699 534.11902
1547.6188 47.837948 532.47162
1553.9558 47.499195 530.25677
98.323151 53.554176 532.59454
102.73943 51.291203 534.98492
1542.6941 51.785431 533.94305
1547.4697 51.529224 532.2981
1553.8071 51.184494 530.08649
98.076904 58.731453 531.56311
103.10162 57.173058 534.10602
1542.4697 57.326942 533.67834
1547.2458 57.064072 532.03699
1550.3444 58.730785 530.84961
96.609352 62.5079 530.22552
101.74851 62.913624 532.47729
106.90426 63.317734 534.71948
1542.2451 62.86636 533.41272
1547.0216 62.596848 531.77496
1550.1951 62.415989 530.67639
101.99141 66.825058 531.89032
107.14491 67.233307 534.13208
1537.3021 66.830025 534.86047
1542.0952 66.557907 533.23517
1547.8301 68.679108 531.11755
1550.0457 66.100159 530.50281
102.88689 72.081406 531.35657
107.38582 71.145714 533.54425
1537.0767 72.371811 534.58972
1541.87 72.093109 532.96796
1548.1593 73.560242 530.70117
104.43449 78.680878 530.87524
107.7477 77.007996 532.66162
111.19063 77.285912 534.14905
1536.8507 77.911453 534.31818
1541.6445 77.626205 532.69995
1546.4222 77.339088 531.07166
104.67769 82.581017 530.28644
108.11011 82.86393 531.77814
111.55076 83.145966 533.26514
1538.2994 81.506744 533.59882
1543.0142 83.059074 531.89105
1546.197 82.862976 530.80621
108.35206 86.763657 531.1886
111.79119 87.048431 532.67529
1533.191 89.180801 534.8396
1538.0732 87.039932 533.3269
1542.7883 88.58522 531.62244
1545.9713 88.384766 530.53992
108.71551 92.606873 530.30334
112.15237 92.895767 531.78967
1533.0398 92.872116 534.65533
1537.8467 92.570984 533.0542
1542.6376 92.267899 531.44287
1545.8208 92.064545 530.36188
112.51407 98.736732 530.90314
119.40777 99.319962 533.86066
1532.8884 96.562347 534.4707
1538.1786 97.450684 532.63306
1542.4114 97.789795 531.17273
1545.5947 97.5821 530.09412
112.75555 102.62646 530.31152
119.64619 103.21514 533.26855
123.10372 103.50806 534.73993
1532.6611 102.09552 534.19299
1536.9102 102.43216 532.74512
1542.1847 103.30955 530.90179
119.88486 107.10712 532.67603
123.34086 107.40275 534.14716
1529.2178 107.83731 534.96893
1532.4337 107.62652 533.91455
1537.2416 107.30826 532.32275
1542.0334 106.98796 530.7207
1529.0658 111.52601 534.78125
1532.2058 113.15479 533.63525
1537.0142 112.83015 532.04688
1541.8064 112.50343 530.4483
1528.8376 117.05685 534.49908
1531.9779 118.68085 533.35516
1536.7865 118.34987 531.77026
1541.5791 118.01676 530.17517
1528.6093 122.58549 534.21619
1531.8258 122.36345 533.16797
1536.6345 122.02823 531.58539
1528.4569 126.26978 534.0271
1533.2778 125.93198 532.45447
1538.0829 125.592 530.87164
143.28102 151.64331 534.86938
147.4608 163.5688 534.51056
144.21191 167.10184 532.47076
147.69229 167.43123 533.9101
144.5621 172.88499 531.56934
147.92406 171.29039 533.3092
151.41071 171.62125 534.74347
352.98633 173.95697 530.55347
365.83261 170.97957 534.81604
148.27222 177.07265 532.40692
151.75642 177.40746 533.84106
155.36301 179.67001 534.9693
354.96744 177.9003 530.54297
148.62088 182.84839 531.50372
152.10265 183.18715 532.93774
155.59229 183.52469 534.36682
148.85368 186.69453 530.901
152.33382 187.03595 532.3349
155.82181 187.37611 533.76392
149.08675 190.53741 530.29779
152.68109 192.8026 531.42975
157.79869 191.39505 533.87256
153.02888 198.5627 530.52368
157.5226 196.46442 532.82996
160.00284 199.25757 533.37634
156.74252 202.74913 531.34772
160.23175 203.09854 532.77148
156.97336 206.5842 530.74249
160.46091 206.93625 532.16626
157.20444 210.41599 530.13684
160.80511 212.68629 531.25732
161.14967 218.4299 530.34741
171.64438 219.50127 534.58899
374.78162 217.25233 530.3551
171.86958 223.33365 533.98175
393.51855 222.32587 534.95264
393.69543 228.02982 534.13397
393.87253 233.7281 533.31482
397.54755 232.08392 534.59998
393.99054 237.52335 532.76831
397.7226 237.7802 533.78131
401.45963 238.03572 534.78809
394.10919 241.31502 532.22192
397.83936 241.57399 533.23511
401.57477 241.83124 534.24231
394.28699 246.99728 531.40161
398.01471 247.25888 532.41541
401.74768 247.51874 533.42322
405.4859 247.77689 534.42511
1503.896 249.07219 533.49017
1507.1619 248.76744 532.52386
1510.4202 248.46118 531.55212
394.46503 252.67374 530.58075
398.19031 252.93797 531.59521
401.92087 253.20045 532.60376
407.5271 253.59067 534.10455
394.58389 256.45416 530.03326
398.30756 256.72015 531.04816
402.03647 256.98441 532.05707
407.64026 257.3772 533.55859
398.4249 260.49945 530.50079
402.21008 262.65451 531.23663
407.16867 262.37708 532.66394
413.36517 261.55264 534.50256
409.73495 265.07367 532.9649
201.60074 293.4111 533.35938
197.18874 297.93427 530.70721
202.47946 298.52875 532.76678
207.78494 299.12003 534.81622
197.4093 301.71518 530.09119
202.69691 302.31396 532.15063
207.99985 302.90897 534.20032
202.39951 307.28824 531.09991
208.21495 306.69467 533.58386
211.75833 307.09161 534.94366
204.89606 310.07578 531.60187
207.39655 312.86169 532.10028
212.07886 312.76721 534.01831
207.09644 317.8284 531.04901
212.3998 318.43619 533.09186
215.94527 318.83896 534.44708
209.07788 321.8038 531.11328
212.6142 322.21091 532.47369
216.15785 322.61627 533.8291
209.29424 325.57266 530.49445
212.93622 327.86633 531.54547
218.14526 326.59329 533.88574
213.25876 333.51501 530.61621
216.69043 332.0444 532.28186
221.45653 333.21912 533.97791
217.01067 337.6918 531.35211
222.33008 338.31149 533.3761
217.22423 341.45258 530.73145
222.54123 342.07574 532.75592
227.87242 342.69553 534.7699
217.43861 345.20932 530.11078
222.85846 347.7153 531.82471
228.08119 346.46021 534.1496
223.17624 353.34814 530.89258
228.39478 352.1004 533.21814
231.95407 352.51746 534.55444
226.93417 357.52246 531.61481
232.26546 358.1546 533.62244
235.82938 358.5737 534.95398
227.14481 361.27225 530.99243
232.47339 361.9082 533.00043
236.03542 362.32971 534.33221
229.2337 367.10468 530.72913
232.78592 367.53192 532.06641
236.34503 367.95703 533.39856
233.09871 373.14862 531.13147
236.6552 373.57758 532.46399
240.11633 372.1304 534.10291
233.30762 376.88861 530.50751
236.8623 377.32007 531.84027
242.20862 377.96344 533.82922
237.17349 382.927 530.90381
242.41325 381.7063 533.20544
242.7207 387.31375 532.2688
248.07437 387.96252 534.24841
243.02866 392.91437 531.33112
248.3782 393.56879 533.3114
251.95396 394.00235 534.62469
241.45439 396.42352 530.04346
246.79764 397.0827 532.02673
252.15501 397.73782 533.99969
247.10385 402.6734 531.08759
252.35631 401.46985 533.37421
255.93541 401.90637 534.68292
249.19122 408.48007 530.80725
252.65874 407.06104 532.435
257.46249 408.26901 534.07458
249.39511 412.19934 530.17999
252.96167 412.64542 531.49481
256.53525 413.08939 532.8045
260.11569 413.53122 534.10895
253.16396 416.36374 530.86737
256.73569 416.81024 532.17743
262.10715 417.47571 534.13196
253.3665 420.07864 530.23944
257.03674 422.38452 531.23572
261.77414 422.36154 533.07898
257.33841 427.95206 530.29309
263.23248 427.46527 532.67535
267.98083 427.44226 534.50879
262.90027 432.33963 531.62073
268.27451 433.01581 533.56702
271.86652 433.46368 534.85754
263.09918 436.047 530.99164
266.77808 438.35321 531.97577
272.06073 437.17728 534.22943
267.60483 442.75156 531.45764
272.35257 442.74078 533.28625
275.85031 441.33804 534.8869
269.06036 447.83957 531.05005
272.64487 448.29736 532.34216
277.37128 447.66879 534.26593
269.25745 451.53687 530.41956
272.84009 451.99716 531.71204
276.42957 452.4552 532.99933
280.02588 452.91101 534.28131
273.13336 457.53995 530.76593
276.72003 458.00174 532.05383
282.01819 456.84033 534.2901
277.01102 463.54132 531.1073
282.30475 462.38721 533.34479
287.80331 464.92416 534.94122
277.20532 467.22977 530.47559
282.59186 467.92719 532.3985
287.99194 468.62003 534.31085
282.78357 471.61591 531.76697
288.18082 472.31244 533.67999
291.78802 472.77371 534.94824
288.36993 476.0014 533.04865
291.97522 476.46512 534.31738
286.95157 483.13342 531.14697
292.35037 483.83755 533.05408
295.95847 484.30386 534.31842
288.93878 487.04749 531.15155
292.5383 487.51859 532.42169
297.95096 488.22055 534.31616
289.12888 490.72253 530.51819
292.82071 493.03317 531.47211
298.13623 491.90192 533.68396
293.10358 498.54086 530.52148
296.61053 497.18073 532.10425
302.02625 497.88794 533.99292
296.89111 502.68655 531.15387
302.30231 503.39963 533.0434
307.72675 504.10779 534.92224
297.07837 506.35266 530.51947
302.48669 507.06946 532.40979
307.90826 507.78131 534.28937
302.76373 512.5672 531.45825
308.09 511.45132 533.65601
311.71121 511.92505 534.90247
304.84338 518.2998 531.13483
308.3631 516.9494 532.7049
311.98141 517.42682 533.95215
315.69547 519.73566 534.87744
306.83221 522.19873 531.1261
312.25211 522.92163 533.00092
315.87408 523.40015 534.24359
308.9108 527.92285 530.79944
312.43286 526.58014 532.36603
317.86621 527.30042 534.22827
312.70447 532.06104 531.41272
317.5 532.09698 533.17554
320.034 534.85608 533.57819
312.97659 537.53479 530.45844
316.59085 538.02325 531.70337
322.57123 537.61273 533.97729
316.77066 541.67023 531.06702
322.20215 542.40137 532.92456
327.64661 543.12714 534.77142
316.95068 545.31378 530.43018
322.46796 547.87036 531.9704
327.82083 546.77802 534.13635
322.73425 553.33246 531.0152
328.0827 552.24731 533.18286
331.716 552.73376 534.40833
324.72089 557.21686 530.99628
328.34497 557.70953 532.22821
331.97513 558.20026 533.45428
335.61188 558.68781 534.67517
324.89798 560.85126 530.35864
328.60791 563.16296 531.2724
332.14832 561.8396 532.81775
335.78314 562.32959 534.03931
328.87131 568.60931 530.31561
332.40863 567.29163 531.86206
337.22495 567.34277 533.59619
332.66934 572.73657 530.90527
338.66516 572.35254 533.15295
343.5752 574.22058 534.5592
332.84351 576.36188 530.26672
336.47049 576.86176 531.49078
341.92365 577.60608 533.31604
336.72925 582.29639 530.5329
341.54379 582.35901 532.26343
347.55597 581.9765 534.49384
342.98215 587.35565 531.81738
347.80627 587.41687 533.53815
351.53607 589.72534 534.42365
342.60303 592.09674 530.76318
348.05701 592.85028 532.58142
351.70135 593.34888 533.78638
355.3519 593.84467 534.98578
344.67319 597.76971 530.41211
348.22449 596.46783 531.94293
351.86688 596.96893 533.14856
355.51547 597.46716 534.34869
348.4762 601.88715 530.98419
352.1156 602.39185 532.1908
356.95148 602.45734 533.89673
348.7283 607.29932 530.02441
352.36481 607.8078 531.23206
358.38583 607.44421 533.44452
363.31143 609.31592 534.8222
352.53122 611.41376 530.59222
357.99542 612.17444 532.3938
363.47195 612.9292 534.18451
357.60657 616.89642 531.34143
361.88864 618.0885 532.63025
367.28992 617.04077 534.7334
362.68549 622.37714 532.08337
367.52856 622.45203 533.77612
371.26755 624.75836 534.63995
362.29373 627.09106 531.03113
367.76764 627.85626 532.81787
371.42502 628.36243 534.00165
364.35895 632.73877 530.66785
367.92731 631.45435 532.17834
371.58273 631.96301 533.36285
375.24423 632.46863 534.54187
368.16733 636.84436 531.21802
371.81976 637.35675 532.40369
375.47827 637.86609 533.58386
368.40781 642.22717 530.25671
372.05716 642.74359 531.44336
378.10239 642.39819 533.62152
383.04187 644.27338 534.9707
372.29523 648.12122 530.48187
377.69916 647.10156 532.57294
383.19455 647.86713 534.33215
377.85504 650.68811 531.93274
383.34744 651.4574 533.69318
387.017 651.96613 534.85931
9.3533812 -775.3446 539.85065
2.8005881 -772.47461 536.27893
7.276958 -772.25867 538.4165
3.13656 -766.09766 535.54803
8.1296844 -766.64563 538.04041
3.3598061 -761.85046 535.0603
6.6845498 -762.21289 536.72211
10.019576 -762.57281 538.37958
6.9079881 -757.96405 536.23389
11.91354 -758.49811 538.71497
7.1305332 -753.71857 535.74506
12.766684 -752.88855 538.33594
7.3530822 -749.47577 535.25635
11.948072 -747.11005 537.13245
17.600615 -746.2666 539.70905
12.800477 -741.50989 536.75317
17.821859 -742.01782 539.21729
13.021949 -737.26965 536.26282
18.042217 -737.77228 538.72491
14.913306 -733.19849 536.59424
18.262583 -733.52948 538.23273
21.621349 -733.85852 539.86615
17.440228 -727.7677 537.03088
21.950768 -727.49438 539.1261
16.618618 -722.01385 535.83044
22.280191 -721.1355 538.38629
19.14406 -716.58484 536.26483
22.499809 -716.8999 537.89319
25.864973 -717.21313 539.51654
19.364431 -712.35535 535.77307
22.719427 -712.66693 537.40021
26.083828 -712.97668 539.02228
19.584803 -708.12854 535.28143
22.939047 -708.43665 536.90729
26.302683 -708.74298 538.52814
23.158667 -704.20905 536.41449
27.718567 -703.20282 538.40765
30.111847 -700.58118 539.15344
23.488096 -697.87299 535.67535
26.959248 -696.05786 537.0462
30.329926 -696.35205 538.65833
27.178104 -691.83484 536.55243
32.23761 -692.27014 538.96625
27.396961 -687.6145 536.05865
32.455292 -688.04474 538.4707
27.615822 -683.39685 535.56494
32.672977 -683.82202 537.97522
37.965168 -680.01855 539.87811
27.834684 -679.18188 535.07135
32.999508 -677.49323 537.23218
38.181656 -675.79614 539.38104
31.63842 -671.03375 535.68927
36.70591 -671.44116 538.08655
31.856516 -666.82343 535.19464
36.922806 -667.22577 537.59021
42.007515 -667.62482 539.97559
37.139706 -663.01312 537.09387
42.223194 -663.40717 539.47754
37.356609 -658.8031 536.59766
42.438873 -659.19214 538.97955
38.209236 -653.23657 536.20093
42.762405 -652.87512 538.23267
46.268986 -651.02087 539.56262
39.697182 -646.31451 535.90314
43.085949 -646.56342 537.48596
46.483849 -646.81073 539.06372
39.913715 -642.11365 535.40656
43.301655 -642.35919 536.98822
46.698719 -642.60327 538.56482
50.74699 -630.22968 538.63666
43.948837 -629.76276 535.49524
47.450836 -627.89868 536.81921
52.666939 -626.1438 538.91785
47.773212 -621.60632 536.07123
52.880577 -621.94489 538.4176
47.988152 -617.41504 535.57263
53.094223 -617.74878 537.91736
48.203106 -613.22644 535.07404
51.603291 -613.44617 536.63788
56.721573 -613.77295 538.97327
51.924469 -607.16382 535.88843
57.040783 -607.48334 538.22144
52.245682 -600.88684 535.1391
57.360023 -601.19922 537.46973
62.49226 -601.50873 539.78998
57.572876 -597.01343 536.96863
62.703773 -597.31818 539.28735
57.785744 -592.83032 536.46759
62.915302 -593.13031 538.78473
57.998634 -588.6499 535.96655
63.12685 -588.94519 538.2821
66.55751 -589.14026 539.81891
59.917542 -584.56946 536.23859
62.339489 -581.91296 536.93127
66.873505 -582.86328 539.0636
62.052082 -576.3125 536.00507
67.189545 -576.59174 538.30829
70.626305 -576.77606 539.83685
63.973251 -572.23169 536.27203
67.400261 -572.41431 537.80481
70.836098 -572.59558 539.33234
64.184914 -568.06006 535.76953
67.611008 -568.23956 537.30133
71.045914 -568.41779 538.82788
64.396606 -563.89117 535.26709
67.821777 -564.06757 536.79785
73.081833 -562.24268 538.83118
68.137985 -557.815 536.04272
71.675507 -555.9007 537.31458
75.116386 -556.06836 538.83301
68.454254 -551.56781 535.2876
71.885429 -551.7337 536.81018
77.049698 -551.9801 539.08374
72.095383 -547.56952 536.30585
77.258224 -547.81128 538.57788
72.305367 -543.40796 535.80145
77.466782 -543.64526 538.07208
72.515381 -539.24915 535.29706
77.779678 -537.40155 537.31335
82.956329 -537.62964 539.57141
78.092636 -531.16333 536.55469
83.267113 -531.38464 538.81061
76.579865 -526.93542 535.29572
81.748558 -527.15283 537.55286
86.93454 -527.36792 539.79944
81.956306 -522.99731 537.04614
87.140816 -523.20801 539.29132
82.164093 -518.8446 536.53943
87.34713 -519.05078 538.78326
91.019295 -515.0293 539.76318
83.015816 -513.33417 536.1134
87.656662 -512.82043 538.02118
91.224678 -510.87457 539.25421
84.511009 -506.46722 535.76764
87.96627 -506.59546 537.25909
91.430099 -506.7226 538.74524
84.71846 -502.32382 535.26044
88.172729 -502.44913 536.75098
91.635551 -502.57336 538.23633
95.106911 -502.69647 539.71631
88.379227 -498.30551 536.24292
91.841042 -498.42682 537.72736
95.311394 -498.54706 539.20648
88.689056 -492.09555 535.48077
92.869141 -477.73505 535.18237
96.539124 -473.70776 536.14734
101.75235 -473.86017 538.34772
96.846313 -467.51361 535.38245
102.05721 -467.65961 537.58099
107.38575 -465.73563 539.5127
102.36215 -461.46454 536.81421
107.58749 -461.60223 539.00024
102.56552 -457.33807 536.30298
107.78927 -457.47159 538.48785
111.28291 -457.55933 539.93726
102.76894 -453.21439 535.79175
107.9911 -453.34369 537.97534
111.48367 -453.42865 539.42401
104.8113 -447.07559 535.75385
108.29395 -447.15729 537.20667
111.7849 -447.23807 538.65411
115.38406 -445.25397 539.83917
108.59689 -440.97635 536.43787
112.08624 -441.05298 537.88416
115.58389 -441.12869 539.32507
108.79892 -436.85938 535.92529
112.2872 -436.93323 537.37079
115.78376 -437.0062 538.81097
109.001 -432.74512 535.41272
112.48821 -432.81619 536.85742
117.73555 -432.92114 539.01392
112.68927 -428.70193 536.34406
117.93498 -428.80273 538.49933
112.99098 -422.53601 535.57385
117.61757 -423.30591 537.57458
121.83853 -420.63495 538.89923
116.78393 -416.43478 536.23999
122.03703 -416.52206 538.38391
116.98353 -412.32886 535.72534
122.23489 -412.41211 537.8681
117.18391 -408.22549 535.21106
122.43363 -408.30469 537.35278
127.69967 -408.38235 539.48364
122.6324 -404.20001 536.83728
127.89678 -404.27362 538.96716
83.60762 -271.59479 539.67926
82.106468 -267.54532 538.39209
82.328506 -263.4812 537.8573
84.494049 -255.33823 537.53851
87.833481 -257.323 539.30402
82.995598 -251.30585 536.25177
88.164406 -251.23186 538.49951
91.621559 -251.18225 539.99133
-3.5703599 -248.83359 535.78979
84.937614 -247.22702 536.46667
88.385124 -247.1748 537.96283
91.84108 -247.12239 539.45404
-3.313592 -244.76465 535.24744
86.882919 -243.14816 536.67822
92.060844 -243.06544 538.91656
87.753136 -237.73914 536.21057
92.280762 -239.0114 538.37891
89.269852 -230.9753 535.81427
92.610916 -232.93591 537.57196
89.491287 -226.93253 535.27655
92.941231 -226.86617 536.76453
93.161926 -222.82352 536.22614
93.382591 -218.78371 535.68738
93.603401 -214.74675 535.14844
104.1011 -212.50098 539.3064
104.42717 -206.44035 538.49469
107.90433 -206.35988 539.95953
193.96619 -205.05125 535.06042
104.64474 -202.40375 537.95331
108.12066 -202.32057 539.41754
197.63974 -202.96579 536.09424
203.11774 -200.83713 537.7655
208.52032 -200.71451 539.69037
104.86247 -198.37004 537.41168
108.33713 -198.28413 538.87537
197.90955 -196.95047 535.30005
201.49786 -196.86644 536.59222
206.89484 -196.74042 538.51935
106.92575 -192.28024 537.3302
112.14315 -192.14526 539.51947
201.67653 -192.85768 536.06226
207.0715 -192.72824 537.98889
107.252 -186.23914 536.51648
112.46656 -186.0981 538.70447
201.85529 -188.85172 535.53223
207.24826 -188.71887 537.45825
212.65564 -188.58611 539.37317
116.16842 -181.97383 539.61218
202.03413 -184.84856 535.00201
208.08366 -183.36223 536.96399
212.91792 -182.5726 538.57629
216.61716 -180.47612 539.5791
209.5771 -176.65996 536.50555
213.18039 -176.56473 537.7793
216.7908 -176.46959 539.04742
209.75356 -172.66068 535.97437
213.35548 -172.56322 537.2478
216.96454 -172.46585 538.51563
220.5807 -172.36858 539.77777
209.93008 -168.66422 535.44305
213.53067 -168.56451 536.71619
217.13837 -168.46492 537.9837
220.75317 -168.36543 539.24554
213.70595 -164.56862 536.18439
217.39929 -162.46915 537.18555
222.82198 -162.31503 539.07489
214.05678 -156.58527 535.12054
217.6604 -156.479 536.38721
223.08 -156.31993 538.27594
217.83461 -152.48933 535.8548
221.44395 -152.38101 537.11554
226.87204 -152.2189 538.99536
218.0089 -148.50246 535.32227
221.61687 -148.39195 536.58276
227.04291 -148.22653 538.46216
221.87643 -142.41397 535.78326
227.29938 -142.24365 537.66217
232.7363 -142.07375 539.52972
227.55605 -136.26639 536.86188
232.98984 -136.09161 538.72888
236.62161 -135.9754 539.966
227.72726 -132.28531 536.32819
227.89861 -128.30704 535.79431
233.32823 -128.12578 537.66071
236.95723 -128.00528 538.89734
229.87691 -124.27 535.88428
232.40411 -121.53819 536.3562
237.2092 -122.03544 538.09552
240.75966 -123.90208 539.59357
1554.3018 -123.03323 539.93524
233.83655 -116.19817 536.05743
237.46135 -116.07124 537.29346
1554.09 -117.42986 539.70959
234.0062 -112.22795 535.52271
237.62958 -112.09888 536.75854
1553.8777 -111.82829 539.48285
237.79791 -108.12933 536.22351
1553.736 -108.09511 539.33087
238.05058 -102.18067 535.42065
241.76086 -100.06358 536.38257
1553.5229 -102.49716 539.10181
1558.8099 -103.18865 537.16833
1562.911 -100.76346 535.49341
241.92807 -96.100395 535.84692
1559.6248 -96.995178 536.52539
1562.7698 -97.042908 535.34503
242.09538 -92.14003 535.3111
1549.9962 -93.121857 539.88123
1559.4829 -93.272217 536.37469
1562.6282 -93.323242 535.19604
1549.7815 -87.524536 539.646
1552.8812 -85.715248 538.40704
1559.2698 -87.68959 536.14746
1562.4865 -89.604477 535.04651
1549.5665 -81.929085 539.40979
1552.7382 -81.988503 538.25116
1557.4788 -82.078598 536.5033
1549.135 -70.744774 538.93341
1552.3076 -70.813873 537.78003
1557.0496 -70.918549 536.04004
1547.4001 -66.982681 539.34692
1552.1637 -67.090881 537.62189
1556.9061 -67.200394 535.88452
1547.2556 -63.255833 539.18567
1552.0195 -63.368828 537.46326
1556.7625 -63.483166 535.72852
1547.0386 -57.667484 538.94275
1552.8342 -57.195114 536.81384
1555.0404 -59.726982 536.15094
1546.821 -52.081066 538.69873
1553.1692 -52.251213 536.40924
1546.6758 -48.358082 538.5354
1551.4414 -48.490162 536.8233
1543.7781 -42.077805 539.20612
1548.0491 -42.821751 537.72156
1551.2239 -42.914742 536.58118
1543.0514 -37.098183 539.17273
1547.8308 -37.243538 537.47583
1551.006 -37.341255 536.33795
1542.9053 -33.375992 539.00568
1547.6849 -33.526035 537.31134
1550.8604 -33.626892 536.17511
1542.6855 -27.794687 538.75409
1547.4658 -27.951746 537.0636
1550.6418 -28.057301 535.92987
1542.4656 -22.215385 538.50159
1547.2466 -22.379433 536.81482
1550.4229 -22.489668 535.68365
84.881264 -16.728266 538.83142
1542.3187 -18.497185 538.33252
1547.1001 -18.66588 536.64832
1550.2034 -16.924498 535.43622
86.841217 -12.654557 539.01373
1537.2996 -12.747626 539.74847
1542.0981 -12.921904 538.07813
1547.9144 -12.518798 535.99438
87.083664 -8.6920452 538.43579
1537.0781 -7.1674781 539.48932
1541.8771 -7.3486452 537.82275
1548.2483 -7.5925207 535.58374
87.447838 -2.7544751 537.56805
92.722466 -0.43574899 539.55096
1536.9302 -3.4487491 539.31592
1541.7295 -3.6344934 537.65186
1546.4387 -1.9673804 535.89319
87.8125 3.1768875 536.69958
92.963516 3.521662 538.97119
1538.3102 2.0634944 538.50195
1543.1055 1.8703935 536.83923
1546.2184 3.5946801 535.6391
88.055939 7.126986 536.12
93.204819 7.4759641 538.39105
1533.2756 7.8335919 539.89026
1538.0881 7.6352539 538.24121
1542.8843 7.4354348 536.58209
1546.0708 7.3012409 535.4693
91.729385 11.309532 537.05444
1533.1271 11.551247 539.71338
1538.4243 12.562629 537.82538
1542.6624 12.99781 536.32397
1545.8491 12.859056 535.21362
91.480957 16.530588 536.02808
1532.9038 17.125643 539.44714
1537.1586 17.557661 537.95837
1542.4401 18.55814 536.06494
1532.6804 22.697943 539.18005
1537.4941 22.481583 537.54089
1542.2917 22.263659 535.89166
193.94 27.885115 537.17041
197.50905 28.104294 538.49945
1532.5313 26.411409 539.0014
1537.2709 28.044546 537.27643
1542.0688 27.819876 535.63086
194.13658 31.807001 536.6062
197.70413 32.028553 537.93512
1529.0867 32.130104 539.81445
1532.3073 31.979504 538.73254
1537.0472 33.605419 537.01111
1541.8457 33.374027 535.36914
194.43181 37.683823 535.75928
197.9971 37.908928 537.08801
1528.8622 37.700516 539.5423
1532.083 37.545483 538.46295
1536.8979 37.311272 536.83362
1541.6968 37.075413 535.19409
102.25744 43.437191 536.15527
107.43259 43.819847 538.39514
198.29041 43.783283 536.2403
201.86076 44.011108 537.56348
205.43843 44.238087 538.88129
1528.7123 41.412697 539.36035
1532.9045 43.672924 537.8017
1537.2329 42.223557 536.41522
1541.5476 40.775761 535.01862
102.49831 47.365768 535.57031
107.67125 47.752556 537.80969
1528.4873 46.978832 539.08661
1533.2402 48.587662 537.38086
1538.052 48.339748 535.75629
107.91014 51.682114 537.22382
113.09736 52.071461 539.453
1526.6472 52.625763 539.34595
1533.0901 52.292244 537.20007
1537.9022 52.039917 535.57794
107.65414 56.872021 536.19385
112.33974 58.531967 537.98016
1524.8818 56.419498 539.69464
1528.0364 58.104118 538.5365
1532.865 57.846981 536.92816
1537.6775 57.588062 535.30957
112.08064 63.719803 536.94971
117.15549 62.156761 539.46423
1524.6558 61.983521 539.41614
1527.8104 63.663258 538.26013
1532.6394 63.399578 536.6554
1537.4524 63.13409 535.04047
112.31905 67.639481 536.36188
117.5096 68.043991 538.58203
1524.4294 67.545364 539.13672
1527.6597 67.367912 538.07538
1532.489 67.099884 536.47302
112.55769 71.556 535.77362
117.74599 71.964592 537.99335
121.21575 72.235847 539.46667
1524.2029 73.104485 538.85645
1527.4333 72.922714 537.79749
1532.2629 72.648193 536.19873
114.64175 77.562973 535.63171
118.10107 77.839157 537.1095
121.45087 76.155991 538.87732
1521.8676 77.549118 539.33936
1527.2068 78.475349 537.5188
1532.0369 78.194351 535.92358
118.45667 83.70739 536.22479
121.80405 82.029869 537.99243
1522.2053 82.458542 538.91241
1527.0555 82.175652 537.33252
1531.8857 81.890343 535.73969
118.69405 87.615311 535.6344
122.15773 87.897392 537.10669
1521.9779 88.013206 538.62872
1527.8777 88.275078 536.66882
1531.7346 85.585258 535.55542
118.9317 91.520042 535.04358
122.39385 91.80484 536.51563
1521.7504 93.565659 538.34424
1528.2129 93.170776 536.24365
122.74854 97.659637 535.62817
1518.3552 97.464569 539.19501
1523.2181 97.166191 537.63239
1528.0613 96.865273 536.05664
1519.7507 102.91557 538.38879
1522.9902 102.7121 537.34766
1527.8337 102.40483 535.77551
1519.5223 108.46346 538.10101
1522.7621 108.25579 537.06219
1525.9939 108.04707 536.01813
1519.37 112.16057 537.90869
1522.6099 111.9501 536.87146
1525.8418 111.73858 535.82898
1512.5612 119.9802 539.57568
1518.0332 118.39143 537.93042
1522.3813 117.48934 536.58459
1525.6134 117.27364 535.54443
1512.4083 123.67944 539.37927
1517.2883 123.354 537.84338
1522.1525 123.02635 536.29712
1525.3849 122.80647 535.25922
142.12314 132.24742 537.85767
142.3542 136.13304 537.26093
145.8474 136.44125 538.70135
364.68906 136.39091 539.71582
142.70132 141.95503 536.36487
146.19212 142.26721 537.80505
364.87891 142.17134 538.90021
143.04893 147.77058 535.4679
146.53734 148.08673 536.9079
150.03366 148.40176 538.34296
366.93448 148.05997 538.60754
146.76782 151.9621 536.3092
150.26254 152.27977 537.74414
365.19608 151.79228 537.54004
147.11406 157.76869 535.41028
152.24216 156.31412 537.8598
365.38678 157.55566 536.72339
152.58514 162.12177 536.95996
365.57767 163.31329 535.90625
152.92862 167.92294 536.0592
365.70508 167.14787 535.36127
154.90521 171.9509 536.17285
155.13397 175.81207 535.57129
158.97591 181.93234 536.09229
388.53741 181.97964 539.6568
159.31763 187.71503 535.18799
169.85172 188.72423 539.43042
388.71497 187.72714 538.84088
392.46234 187.96349 539.85449
170.07491 192.58282 538.82678
388.83347 191.55498 538.29663
392.57925 191.79305 539.31067
172.06 196.60773 538.92462
389.01147 197.29099 537.47998
392.75485 197.53162 538.49451
396.50354 197.77071 539.50305
172.39455 202.386 538.0177
177.79413 204.82591 539.81604
389.18967 203.02121 536.66278
392.93066 203.26445 537.67798
396.67691 203.5061 538.68707
400.42868 203.74638 539.69019
172.72952 208.15781 537.1098
178.015 208.67657 539.21063
389.30862 206.83752 536.1178
393.048 207.08249 537.1333
396.79266 207.32587 538.14282
400.54263 207.56769 539.1463
1492.5427 207.97174 539.73962
172.95314 212.00131 536.50391
178.23611 212.52396 538.60474
181.76828 212.87056 539.99854
389.4277 210.65096 535.57257
393.22424 212.8038 536.31592
396.96661 213.04987 537.32605
402.53357 211.5072 539.10114
1492.3102 213.49886 539.42346
173.17702 215.84155 535.89764
176.80768 218.11191 536.99561
181.98801 216.71719 539.39221
393.40091 218.5195 535.49817
397.14056 218.76787 536.50885
402.70389 217.23068 538.28491
408.39142 219.50369 539.50476
1492.155 217.18201 539.21234
1495.451 216.90579 538.25458
177.65392 222.64861 536.52063
182.31799 222.48065 538.48181
185.96281 224.7536 539.56683
397.25674 222.57611 535.96375
402.87439 222.94843 537.46826
408.50278 223.31703 538.96094
412.26175 223.5607 539.94788
1488.6189 222.98288 539.84534
1491.9224 222.70432 538.89514
1495.2183 222.42433 537.93958
397.37296 226.38155 535.4184
402.98843 226.75615 536.92371
408.61423 227.1275 538.41693
412.37161 227.37285 539.4043
1488.386 228.50655 539.52551
1493.3375 228.08234 538.10083
1498.2739 227.65524 536.66534
402.51648 231.78659 536.03046
407.5506 233.38811 537.17834
412.53659 233.08533 538.5885
416.2424 231.42746 539.84222
1488.2307 232.18738 539.31195
1493.1821 231.75943 537.88953
1498.1187 231.32855 536.45618
407.07556 238.4156 536.28619
412.70181 238.79205 537.77228
416.40515 237.13814 539.02679
1488.0753 235.86699 539.09821
1493.0269 235.4353 537.67792
1497.9634 235.00067 536.24677
407.18826 242.2137 535.74109
412.81207 242.5927 537.22784
416.56808 242.84306 538.21094
420.32916 243.09167 539.18799
409.22925 248.03326 535.42102
412.92249 246.39047 536.68323
416.67688 246.6425 537.66681
424.20084 247.14124 539.61566
413.08832 252.08134 535.86584
424.35944 252.83954 538.80048
428.17838 254.98834 539.49481
413.25433 257.76645 535.04803
417.00391 258.02353 536.03302
432.05212 259.03406 539.91205
417.11313 261.81143 535.48804
432.15488 262.82864 539.36902
428.49146 266.36716 537.86407
432.25772 266.62036 538.82574
436.02887 266.87173 539.78119
207.57042 295.32758 535.43176
213.10904 299.70697 536.85303
211.545 303.30341 535.56
217.4008 302.69135 538.01941
222.2244 304.47656 539.60828
217.08807 307.68365 536.97321
222.4326 308.27246 538.99243
217.29897 311.47235 536.35657
222.64064 312.06461 538.3761
226.21156 312.45731 539.71552
218.17276 316.58502 535.75885
222.95364 317.74658 537.45074
226.41832 316.24884 539.09894
219.70882 323.0199 535.17932
223.26706 323.42175 536.52441
226.72894 321.92944 538.1731
230.30269 322.32666 539.50781
223.47664 327.20041 535.90656
227.04005 327.60333 537.24646
232.40007 328.20364 539.24628
223.68588 330.97638 535.28766
227.24779 331.38144 536.62799
232.60513 331.9855 538.62817
227.55988 337.04187 535.6994
232.91319 337.65152 537.70007
238.17943 336.3681 539.99963
231.43626 343.10638 536.10571
237.32498 342.52826 538.52637
231.64319 346.8735 535.4856
235.21237 347.28494 536.81647
242.37219 348.10229 539.46252
236.67784 352.44287 536.43109
242.57394 351.87347 538.84265
239.29816 357.10965 536.59088
242.87708 357.5235 537.91199
246.46309 357.93552 539.22778
239.60446 362.74921 535.65881
243.18068 363.16681 536.98029
246.76399 363.58252 538.29651
250.35437 363.99628 539.60742
239.80901 366.50439 535.03687
243.38342 366.9245 536.35852
246.96492 367.34268 537.67499
250.55347 367.75891 538.98627
243.68802 372.55426 535.42499
247.26678 372.97614 536.74182
252.5497 371.72653 539.0177
247.56914 378.60284 535.80774
252.84782 377.36047 538.08447
258.33945 379.86783 539.72827
247.77104 382.34943 535.18439
253.14644 382.98761 537.15033
258.53586 383.6218 539.10577
251.55261 386.52124 535.87323
256.93579 387.1601 537.83179
262.33289 387.79495 539.77979
251.75316 390.26349 535.24921
257.2326 392.7774 536.89618
262.52795 391.54462 539.15668
257.52991 398.38782 535.95959
262.82092 397.16226 538.22107
266.42365 397.58887 539.51355
259.52148 402.34082 535.98639
263.11444 402.7731 537.28455
266.71445 403.20346 538.57751
270.32132 403.63171 539.86511
259.71936 406.0744 535.36108
263.31049 406.50919 536.65961
266.90863 406.94199 537.95288
270.51364 407.37265 539.24084
263.60498 412.10645 535.72119
267.20035 412.54291 537.01501
271.97382 412.4986 538.83533
267.49255 418.13702 536.07611
273.4325 417.62128 538.42944
278.31146 419.44464 539.92731
267.68768 421.86185 535.44958
273.08752 422.52148 537.3811
278.50101 423.17682 539.30188
271.57565 427.88644 535.79871
276.88605 426.68628 538.03644
282.30698 427.34201 539.94983
277.17261 432.27075 537.09631
282.58929 432.93198 539.01062
277.45963 437.84839 536.15527
282.87213 438.51511 538.0705
286.39612 437.09491 539.65344
279.45227 441.78644 536.16766
283.06097 442.2326 537.44312
286.67648 442.67654 538.71326
290.29868 443.11823 539.97797
279.64322 445.49808 535.53937
283.34476 447.802 536.5011
286.86368 446.39307 538.08575
290.48401 446.83719 539.35095
283.62897 453.36456 535.55804
287.14499 451.961 537.14362
292.57458 452.6315 539.03967
287.42676 457.52203 536.2005
292.85217 458.19806 538.09753
298.29086 458.86942 539.98383
287.61493 461.22482 535.57111
293.03748 461.90448 537.46881
298.47339 462.5795 539.35577
291.50766 467.22968 535.89368
296.36255 468.45306 537.47009
297.21201 473.46094 536.83997
302.55875 472.29221 539.03552
306.28311 474.59509 539.96777
297.39633 477.1561 536.20972
302.83093 477.84204 538.09149
306.46274 478.29626 539.33881
299.5733 484.7677 535.57745
303.28583 487.07336 536.51563
306.9129 487.53369 537.76416
310.54651 487.99155 539.0072
303.55945 492.60251 535.56873
307.18365 493.06647 536.81799
313.18036 492.60327 539.09741
307.36444 496.75037 536.18658
312.811 497.44507 538.05042
318.27057 498.1348 539.90344
307.54547 500.43082 535.55469
312.44339 502.27832 537.00214
318.44589 501.82251 539.27313
313.25739 506.64777 536.47156
317.52658 507.80527 537.80975
322.35287 507.80975 539.55603
317.15607 512.63062 536.76135
322.61389 513.33112 538.60944
326.26102 513.79474 539.83423
317.33325 516.30322 536.12885
322.78821 517.00745 537.97772
326.43341 517.47345 539.20306
319.41422 522.04272 535.79761
323.05011 522.51489 537.02917
326.69247 522.98456 538.25537
330.25577 521.6145 539.79193
323.3125 528.0155 536.07965
326.95197 528.48877 537.30676
331.75836 527.89172 539.14453
323.48773 531.67792 535.44598
327.12527 532.15356 536.67365
332.59454 532.86157 538.50439
327.38571 537.64386 535.72302
332.21429 537.66815 537.45752
338.24377 537.23395 539.69177
333.65768 542.70642 537.0188
338.49585 542.72992 538.74304
331.45724 547.26044 535.36121
336.92389 547.98016 537.18665
342.32031 546.86353 539.31787
337.09351 551.63367 536.55255
342.57025 552.35101 538.36835
346.22977 552.82562 539.57159
337.92722 556.58002 535.90887
342.82074 557.82971 537.41772
346.39474 556.48169 538.9386
339.42426 562.81689 535.25537
343.07169 563.30151 536.466
346.6427 561.95886 537.98816
350.30359 562.43677 539.18738
343.23932 566.9447 535.83093
346.89108 567.42902 537.03668
352.38116 568.1499 538.83429
343.40714 570.58441 535.19531
347.14001 572.89038 536.08398
352.54413 571.79565 538.20032
358.04367 572.51465 539.98779
347.3894 578.34485 535.13031
352.78906 577.25732 537.24835
358.28418 577.98181 539.03735
353.03436 582.71204 536.29541
358.52515 583.44189 538.08594
362.11429 582.10449 539.58887
351.371 586.09833 535.06042
356.85577 586.83325 536.85474
362.35251 587.56335 538.63745
366.02576 588.0448 539.81946
357.68146 591.75525 536.20587
362.5918 593.01221 537.68567
366.18301 591.68158 539.18542
359.17014 597.96271 535.54315
362.83115 598.45496 536.73236
366.41931 597.1297 538.2334
370.09338 597.61523 539.41101
362.99103 602.0788 536.09619
366.6561 602.5708 537.2804
372.16583 603.30304 539.04565
363.15112 605.6991 535.45947
366.89337 608.00317 536.32617
372.32101 606.92944 538.41071
367.13113 613.42853 535.37091
372.55423 612.36194 537.45734
378.06866 613.09741 539.21411
372.78799 617.78723 536.50317
378.29788 618.52838 538.26141
381.97925 619.01831 539.42621
372.94397 621.39984 535.86609
378.45105 622.14435 537.62567
382.1304 622.63666 538.7912
385.8157 623.12604 539.95117
374.93295 625.25909 535.81744
377.48358 627.99609 536.17395
382.35754 628.05737 537.83765
385.96512 626.74329 539.31641
378.91168 632.97125 535.71533
382.58517 633.47083 536.88324
388.03284 632.40845 538.94147
379.06567 636.57318 535.07758
382.73721 637.07513 536.24628
393.78726 638.56299 539.71838
382.88943 640.67603 535.6087
386.64014 642.97736 536.45392
392.08997 641.92346 538.50696
386.86609 648.37347 535.49756
392.3114 647.32678 537.55273
397.84363 648.07196 539.27759
392.53317 652.72302 536.59741
398.06104 653.47369 538.32416
401.75409 653.96997 539.46783
-13.334031 -889.00281 544.6004
-12.994244 -882.53314 543.86945
-12.654591 -876.06891 543.13885
-9.3415432 -876.53931 544.854
-12.428242 -871.76306 542.65204
-9.1157751 -872.22955 544.36566
-12.201956 -867.4599 542.16534
-8.8900728 -867.92249 543.87756
-11.97573 -863.15942 541.67883
-8.6644316 -863.6181 543.38959
-11.749562 -858.86169 541.1925
-7.2568126 -858.03436 543.30737
-4.893333 -855.46619 544.11694
-11.410423 -852.42047 540.46326
-7.9878678 -850.72131 541.92664
-4.6684718 -851.16614 543.62805
12.700047 -775.7135 541.50702
17.739197 -776.26276 543.98151
12.921453 -771.44989 541.01526
17.959549 -771.99377 543.48773
13.142827 -767.18903 540.52356
18.179869 -767.72742 542.99414
13.364172 -762.93079 540.03204
16.718319 -763.2868 541.67944
21.768581 -763.81689 544.14032
16.938932 -759.02771 541.18665
22.097872 -757.42151 543.39838
17.269798 -752.64447 540.44775
22.427101 -751.03168 542.65662
22.646549 -746.77539 542.16223
27.711397 -747.28021 544.60522
22.865974 -742.52173 541.66797
27.929712 -743.0213 544.10907
23.085762 -738.27051 541.17419
28.147999 -738.76514 543.61304
24.989599 -734.18567 541.49457
28.47538 -732.38629 542.86926
31.86187 -732.70807 544.48663
26.479706 -727.21503 541.21057
32.188065 -726.32941 543.74115
27.333797 -721.60974 540.82068
32.406223 -722.08014 543.24487
35.799419 -722.39191 544.85345
29.23954 -717.52454 541.13483
32.623493 -717.83417 542.74799
36.016823 -718.14185 544.35608
29.457615 -713.28467 540.63934
32.840771 -713.59082 542.25128
36.233284 -713.89514 543.85809
29.675692 -709.04749 540.14398
33.166698 -707.23126 541.50635
37.655594 -708.3371 543.72778
40.066444 -705.70551 544.46167
33.49263 -700.87708 540.76172
36.882725 -701.1712 542.36487
40.282112 -701.4635 543.96283
33.709919 -696.64453 540.26538
37.099213 -696.93524 541.86731
40.497784 -697.22418 543.46411
37.315701 -692.70203 541.36987
42.416962 -693.12952 543.76074
37.532188 -688.4715 540.87256
42.632225 -688.89392 543.2616
37.74868 -684.24371 540.37531
42.955116 -682.54602 542.51306
48.178726 -680.8399 544.63867
43.278011 -676.20349 541.76477
48.392738 -676.60748 544.13812
41.791836 -671.84521 540.47369
46.900734 -672.24506 542.8479
47.115166 -668.01965 542.34808
52.241104 -668.41125 544.71014
47.329597 -663.79712 541.84833
52.454269 -664.18372 544.20868
47.651249 -657.46851 541.09882
52.774017 -657.84778 543.45667
56.307468 -655.98572 544.77039
49.67683 -651.2699 541.13629
53.093765 -651.51727 542.70477
56.519772 -651.76306 544.26801
49.89085 -647.05646 540.63629
53.306934 -647.3006 542.20361
56.732075 -647.54309 543.76575
51.812489 -642.96619 540.91943
56.944382 -643.32587 543.26355
60.377686 -643.5636 544.81934
54.159645 -630.46088 540.19965
57.581322 -630.69049 541.75739
62.731815 -631.03186 544.08356
57.793644 -626.48413 541.25549
