# .PCD v0.7 - Point Cloud Data file format
VERSION 0.7
FIELDS x y z
SIZE 4 4 4
TYPE F F F
COUNT 1 1 1
WIDTH 1593
HEIGHT 1
VIEWPOINT 0 0 0 1 0 0 0
POINTS 1593
DATA ascii
211.87991 -126.08065 510.91483
217.10669 -127.85898 513.06104
222.51584 -125.71164 514.68787
212.05028 -122.16049 510.4064
217.35928 -121.9724 512.29785
222.68231 -121.78486 514.17859
40.384827 -117.9342 514.45349
217.52783 -118.05162 511.78882
222.84891 -117.86078 513.66913
226.40556 -117.73393 514.91547
40.745914 -111.99633 513.65472
217.78085 -112.17584 511.02499
223.09897 -111.98006 512.90466
226.57094 -113.81037 514.40564
42.644302 -107.96387 513.90723
219.80348 -106.23845 510.88898
223.34927 -106.10474 512.13989
226.81921 -107.93044 513.6405
230.46164 -105.83832 514.62561
219.97179 -102.32737 510.37918
223.51627 -102.19147 511.62985
227.06767 -102.05592 512.87512
230.62599 -101.92071 514.11505
223.68336 -98.280907 511.11963
227.23343 -98.143166 512.36469
232.57236 -97.937286 514.22144
223.85054 -94.373039 510.60925
227.39932 -94.233131 511.85403
232.19739 -92.744041 513.33447
227.73143 -86.421188 510.83234
233.06439 -86.205597 512.68805
238.41104 -85.990822 514.53296
227.89764 -82.519287 510.32123
231.44933 -82.373268 511.55994
236.79056 -82.155067 513.40723
231.61433 -78.471916 511.04843
236.95355 -78.250504 512.89539
231.86205 -72.625313 510.28085
237.19827 -72.399078 512.12732
237.44318 -66.553085 511.35895
237.60661 -62.659389 510.84644
239.5488 -58.689415 510.94714
243.11288 -58.531925 512.16846
246.68372 -58.374947 513.38428
250.26125 -58.218475 514.59473
239.71178 -54.800087 510.4342
243.35538 -52.696117 511.39868
246.92416 -52.535976 512.61432
251.72 -51.674175 514.14038
243.5981 -46.865753 510.6286
243.76006 -42.982479 510.11496
309.52502 77.913986 514.22998
309.73737 83.65976 513.4494
313.36575 83.875374 514.56952
309.87906 87.486595 512.92877
313.50616 87.704407 514.04901
311.83368 91.420486 512.96814
317.2782 91.748795 514.64307
312.04559 97.152557 512.18658
317.48663 97.485138 513.86169
312.25763 102.87894 511.40457
317.6954 103.2159 513.0799
312.39917 106.69291 510.88293
317.83475 107.03271 512.55841
314.4205 112.52336 510.66052
318.0441 112.75252 511.77582
318.25351 118.46653 510.99283
176.36417 237.88742 514.76349
173.12051 241.30003 512.79144
172.33371 247.46655 511.35547
180.36917 247.70749 514.69366
173.77426 252.61929 511.04309
173.99278 256.38596 510.45938
177.44603 256.76538 511.84979
177.77187 262.41278 510.97327
178.09833 268.05389 510.09579
181.55446 268.43936 511.48157
181.77052 272.19861 510.89575
279.65695 271.32755 510.79129
283.22946 271.66193 512.00098
286.80798 271.9942 513.20532
290.39313 272.32501 514.4043
279.82471 275.07199 510.23288
283.47858 277.28021 511.16345
287.05481 277.61591 512.36816
290.63757 277.94998 513.5675
294.30746 280.15744 514.48254
189.98555 295.48776 510.12918
193.66563 299.63083 510.91177
193.87915 303.37177 510.32242
197.24414 301.90244 511.98383
202.46657 302.50085 514.02417
197.56218 307.51443 511.0994
202.78082 308.11853 513.13989
197.77455 311.25143 510.50912
202.99069 311.85938 512.5498
208.22151 312.46396 514.58075
202.69109 316.77356 511.53595
207.40556 318.56158 513.14551
201.88312 322.8566 510.09769
207.10275 323.47333 512.13159
212.23376 322.21796 514.45135
207.31198 327.20367 511.53967
212.54364 327.82083 513.5639
216.04111 328.22995 514.90686
208.17131 332.24173 510.97504
212.75058 331.55176 512.97162
216.24635 331.96338 514.31476
209.68016 338.58539 510.43738
213.06158 337.14154 512.08234
216.55472 337.55701 513.42554
220.15733 339.83521 514.46759
213.37297 342.72501 511.19189
216.86357 343.14423 512.5354
220.36151 343.56155 513.87408
213.58093 346.44287 510.59766
217.0699 346.86456 511.94138
222.31778 347.49353 513.94702
213.7892 350.15753 510.00293
217.37985 352.43866 511.04929
222.00659 352.383 512.93225
217.69029 358.00623 510.15616
223.4456 357.47882 512.5835
228.08398 357.42389 514.45679
223.13516 362.35751 511.56683
228.3871 362.9978 513.56372
231.8979 363.42218 514.88837
221.5928 365.85007 510.30319
226.32303 367.65887 511.88229
232.09859 367.13626 514.29254
227.76132 372.74316 511.52985
232.40012 372.70081 513.39789
236.01349 374.98456 514.4198
229.19829 377.82446 511.17676
232.70216 378.25882 512.5022
236.21317 378.69125 513.82275
229.40175 381.52292 510.57877
232.90396 381.95987 511.90448
238.17126 382.61118 513.88306
233.20699 387.50464 511.00681
236.71356 387.9433 512.32788
240.12788 386.5303 513.94312
233.51057 393.04291 510.10812
237.01454 393.48529 511.42957
242.18559 392.2963 513.70105
237.21553 397.17557 510.83002
242.483 397.83896 512.80261
247.76453 398.49835 514.76514
237.41679 400.86255 510.22998
242.16246 402.68451 511.78418
247.96049 402.19278 514.16589
243.59874 407.7475 511.42108
248.25497 407.72784 513.26599
251.68355 406.32578 514.86835
246.79182 413.03183 511.71121
251.97575 411.85956 513.96814
255.60345 414.14783 514.96558
246.98972 416.71179 511.1098
252.26846 417.38675 513.06689
255.79691 417.83398 514.36493
249.04298 422.45267 510.86096
252.56181 422.90567 512.16443
255.99062 421.51682 513.76379
252.85568 428.41794 511.26099
258.04709 427.26007 513.50793
253.05193 432.08835 510.65802
256.57324 432.54547 511.95728
261.86902 433.22687 513.896
253.24844 435.75543 510.0545
256.86539 438.0481 511.05225
262.06107 436.90015 513.29333
257.15814 443.54413 510.14618
262.34964 442.40341 512.38831
267.65247 443.08984 514.31824
262.63873 447.90002 511.48224
267.93753 448.59198 513.41296
271.47916 449.05035 514.6933
262.83179 451.56 510.87753
268.12787 452.25565 512.80878
271.66772 452.71646 514.08948
264.8837 457.27698 510.61548
268.414 457.74371 511.90176
271.85641 456.37878 513.48529
275.40134 456.8403 514.76111
268.70038 463.22614 510.99329
272.14014 461.8663 512.57776
276.89612 463.0954 514.17737
268.89175 466.87643 510.38705
272.42435 467.34714 511.66925
277.73682 468.04865 513.58234
272.7092 472.81958 510.75943
277.92389 471.70178 512.97656
283.24713 472.40244 514.88
277.58368 476.4881 511.95581
282.37253 478.33221 513.44751
276.71725 482.40302 510.51935
282.02893 483.11591 512.42719
287.26239 481.99951 514.62793
282.21521 486.75806 511.81976
287.53757 487.46997 513.71796
291.09473 487.94147 514.97662
283.05405 491.6889 511.22064
287.81339 492.93207 512.80676
291.27667 491.58643 514.36975
284.54468 497.90616 510.62949
288.08966 498.38739 511.89456
291.55005 497.04718 513.45837
295.19928 499.34323 514.40887
284.73105 501.5361 510.0202
288.2742 502.01984 511.28571
291.82391 502.50128 512.54596
295.38049 502.97998 513.80133
288.55145 507.46176 510.37134
292.09845 507.94687 511.63232
297.34219 506.85339 513.81812
292.37363 513.38544 510.71783
297.61298 512.29938 512.90479
303.0462 514.83691 514.47217
292.55731 517.00684 510.10739
297.88422 517.73871 511.99042
303.22464 518.46515 513.86353
297.53391 522.48462 510.96774
303.40274 522.091 513.2536
306.97 522.57428 514.49597
301.89206 527.27728 511.71429
307.23499 528.00977 513.58105
310.89328 530.30646 514.51379
48.194916 -637.26111 516.2644
53.218658 -637.62451 518.60669
32.723549 -422.0813 517.73016
32.462658 -416.62878 516.81226
32.682259 -412.55338 516.32196
32.90197 -408.48059 515.83142
34.889862 -402.41095 515.88562
35.219227 -396.30994 515.1485
177.04773 -277.33157 519.72882
177.22453 -273.32816 519.22815
187.6226 -237.26799 517.99829
192.92517 -237.17818 519.9516
196.98491 -225.16057 519.73456
197.15672 -221.18007 519.23035
197.3286 -217.20224 518.72607
197.50058 -213.22708 518.22168
201.04527 -213.15311 519.50867
197.7587 -207.26971 517.46484
202.51318 -206.50409 519.09406
198.017 -201.31769 516.70789
201.55798 -201.23685 517.99365
205.10616 -201.15601 519.27399
198.18932 -197.35324 516.20306
201.72905 -197.27013 517.4884
205.27599 -197.187 518.76843
198.36171 -193.39148 515.69812
201.90021 -193.30608 516.98309
207.22232 -193.17801 518.89978
198.53421 -189.43239 515.19305
202.15714 -187.36536 516.22485
207.47643 -187.23221 518.14069
212.89377 -185.11638 519.79236
202.41423 -181.43001 515.46643
207.7307 -181.29175 517.38141
213.06143 -181.15363 519.28558
213.22917 -177.19356 518.77869
208.07007 -173.38101 516.36859
213.39699 -173.23616 518.27173
216.95772 -173.13972 519.5332
206.46722 -169.47911 515.22601
211.87303 -167.35539 516.87781
217.20773 -167.20569 518.77197
220.85631 -165.12782 519.77356
212.1261 -161.43176 516.11707
217.45792 -161.27704 518.0105
221.02185 -161.17407 519.2655
38.110348 -155.68701 519.4931
214.0692 -157.4335 516.24255
217.62483 -157.32819 517.50269
221.18748 -157.22302 518.75739
36.689445 -151.76225 518.17285
214.23749 -153.48956 515.73492
217.79182 -153.38203 516.99475
223.13737 -153.22107 518.87366
36.928658 -147.7805 517.64392
214.40585 -149.54831 515.22717
218.04251 -147.46819 516.2326
221.60196 -147.35753 517.48657
226.38672 -146.5524 519.06458
37.168106 -143.80159 517.11462
218.2934 -141.55972 515.47021
221.85089 -141.44577 516.72369
227.20108 -141.27524 518.59302
37.527748 -137.8389 516.31995
222.01698 -137.50819 516.2149
227.36523 -137.3344 518.08386
232.72731 -137.16104 519.94177
39.544327 -131.81303 516.31409
222.18317 -133.5733 515.70605
227.52946 -133.39624 517.57446
232.88959 -133.21965 519.43207
39.784157 -127.84399 515.78296
222.34946 -129.64113 515.19702
227.776 -127.49442 516.8103
233.13318 -127.31298 518.66724
236.79439 -125.2233 519.6427
40.024227 -123.8778 515.25146
228.02274 -121.59801 516.04578
233.37697 -121.41171 517.9021
236.95563 -121.28788 519.13232
229.96915 -117.60738 516.15637
233.53963 -117.48112 517.39185
237.11696 -117.35516 518.62189
231.91779 -113.61745 516.26392
237.27838 -113.42515 518.11121
232.73026 -108.36411 515.78912
237.52071 -107.53554 517.34503
234.19119 -101.78584 515.34955
237.76318 -101.65132 516.57855
237.925 -97.732132 516.06738
238.08691 -93.815651 515.55603
238.24892 -89.901878 515.04456
242.14542 -81.937706 515.24365
247.51718 -81.721413 517.06641
252.90233 -81.505974 518.87811
253.84544 -58.062515 515.79968
257.43628 -57.907074 516.99908
262.83575 -57.674946 518.78717
254.00299 -54.164791 515.28607
257.59247 -54.007282 516.48535
262.98987 -53.772079 518.27319
264.94473 -49.792702 518.35309
268.55252 -49.634769 519.53564
1551.7036 -31.735428 519.87256
1551.5563 -28.061712 519.70502
1551.335 -22.55312 519.45276
1551.1134 -17.046518 519.19965
1550.9655 -13.376783 519.03033
1550.7432 -7.8741846 518.77551
1550.5206 -2.3735991 518.51978
292.21292 1.948657 519.80585
1550.2976 3.1244605 518.26294
292.43079 7.7625341 519.03046
296.13495 9.8825054 519.91406
1550.0752 8.6207628 518.00494
292.64865 13.571054 518.25458
296.27863 13.755963 519.39667
1549.9263 12.283467 517.83264
292.79413 17.439697 517.73718
296.4227 17.626547 518.87927
1549.7026 17.77549 517.57324
296.56683 21.49439 518.36169
300.20016 21.682356 519.49811
1549.4788 23.265474 517.31305
296.85547 29.221851 517.32599
302.30426 29.509159 519.02783
1549.3292 26.924101 517.1391
293.37711 32.886848 515.66577
296.99994 33.081467 516.80786
302.44656 33.371662 518.50964
1549.1047 32.409988 516.87726
293.52313 36.741772 515.14752
297.14453 36.938335 516.28955
302.58899 37.231422 517.99146
319.81955 61.251072 519.91125
322.05524 72.893478 518.90436
313.08575 76.209816 515.61005
316.72327 76.420799 516.72443
313.22577 80.044083 515.0899
316.93112 82.173653 515.94421
317.13922 87.92099 515.16364
374.92422 175.20996 519.75018
375.04282 179.00392 519.22797
377.00623 182.91553 519.21924
378.96814 186.826 519.21069
377.93637 193.05518 517.99701
382.83481 192.74896 519.44922
178.97867 223.08292 518.47174
182.46158 223.43646 519.8526
179.19189 226.88007 517.89178
182.67314 227.23621 519.27252
178.39111 233.08035 516.46228
182.99106 232.92944 518.40161
179.83305 238.25259 516.14911
183.30949 238.61635 517.52985
186.6882 237.08247 519.19641
181.78471 242.22025 516.25769
187.0045 242.76833 518.32385
190.49426 243.13168 519.69476
410.14053 241.67084 519.92444
183.84157 248.07762 516.07434
187.21553 246.55446 517.74158
190.7039 246.92061 519.11255
406.5415 245.17868 518.41583
412.1557 247.44041 519.63062
187.42723 250.33791 517.15887
192.66093 250.88974 519.21289
202.55008 272.60886 519.40039
294.146 276.40732 515.04047
297.74237 276.73691 516.22894
301.34506 277.06482 517.41205
297.90219 280.4892 515.67126
301.5033 280.81924 516.85461
207.70367 303.09601 516.05469
208.01408 308.71945 515.17065
212.54507 306.74884 517.35828
217.2935 308.52582 518.94818
211.71846 312.86478 515.9281
216.97842 313.46262 517.93921
222.25287 314.05704 519.94037
211.92438 316.60864 515.33777
217.18182 317.21021 517.34912
222.4537 317.80835 519.3504
217.48737 322.82516 516.46295
222.6548 321.55646 518.76001
219.54582 328.63733 516.24481
222.95694 327.17215 517.87354
226.47688 327.57477 519.20142
219.74936 332.37326 515.65289
223.25957 332.78137 516.98602
226.77696 333.18771 518.31415
230.3015 333.59229 519.63727
219.95316 336.10593 515.06042
223.46136 336.51688 516.39349
226.97736 336.92535 517.72205
230.50018 337.3324 519.04535
223.76529 342.11279 515.50433
227.27843 342.52533 516.83289
231.94156 342.44968 518.69476
227.58 348.1188 515.94281
233.38168 347.56406 518.34363
238.1544 349.35663 519.89917
227.7814 351.84344 515.34875
234.82047 352.67545 517.99182
238.35063 353.08868 519.30573
231.59738 357.84454 515.78107
236.7829 356.60962 518.05469
237.07947 362.19452 517.16272
242.37524 362.82166 519.12939
237.3764 367.77277 516.26978
242.66833 368.40549 518.23694
246.20566 368.82474 519.54163
237.5748 371.48737 515.67383
242.86406 372.12369 517.64136
246.39964 372.54538 518.94623
239.6322 377.26715 515.43665
243.15816 377.69446 516.74695
246.69113 378.11984 518.05225
250.13472 376.685 519.65045
243.45274 383.2587 515.85162
246.98311 383.68777 517.15723
251.63756 383.01886 519.08856
243.64948 386.96381 515.25403
247.17809 387.39536 516.55994
252.48495 388.0387 518.50867
247.47104 392.95013 515.66302
252.67755 391.74664 517.91125
257.99567 392.38968 519.85016
252.96693 397.30206 517.01428
258.2811 397.95056 518.95374
251.48907 402.6322 515.46777
256.79581 403.28723 517.41052
262.02191 402.08606 519.64209
256.98764 406.9845 516.81146
262.30551 407.6391 518.74438
257.83334 411.98251 516.22742
262.49493 411.33673 518.14532
266.04752 411.77277 519.42743
259.33228 418.27911 515.6579
262.77945 416.87653 517.24573
267.5462 418.07822 518.85425
259.5242 421.96442 515.05701
263.06461 422.40985 516.34521
266.61197 422.85327 517.62823
270.16614 423.29456 518.90613
263.35034 427.93491 515.44336
266.8006 426.54016 517.02753
272.13257 427.20465 518.94232
267.08405 432.0639 516.12549
272.41196 432.73389 518.04108
267.36795 437.58102 515.22247
272.69183 438.25647 517.13879
277.93732 437.08539 519.34546
272.87878 441.93378 516.53662
278.21356 442.60849 518.44324
281.77905 443.05536 519.7074
273.06595 445.60776 515.93402
277.33612 448.58435 517.01611
281.96173 446.73541 519.10565
276.99103 453.40326 516.00024
282.23624 452.2489 518.20215
285.80396 452.69958 519.46204
278.95291 457.29913 516.03192
282.5112 457.75571 517.29755
287.86203 458.4361 519.18567
279.13824 460.96301 515.42798
282.69473 461.42203 516.69403
288.04285 462.10602 518.58276
282.9707 466.91559 515.78748
286.53119 467.37598 517.04901
291.25983 467.37476 518.82294
286.8049 472.86649 516.14209
292.6904 472.41315 518.43481
297.51804 474.24472 519.89722
286.9877 476.52237 515.5368
292.3349 477.21747 517.42023
297.69537 477.9079 519.29321
292.60553 482.7001 516.51227
297.87292 481.56775 518.68866
301.45334 482.02762 519.93054
294.65845 488.41064 516.22998
298.13971 487.05099 517.78088
301.71771 487.51392 519.0238
305.38931 489.80368 519.95898
294.83856 492.05807 515.62354
298.40677 492.52783 516.87183
301.9823 492.99393 518.11578
305.56396 493.45831 519.35394
297.45636 497.23083 515.64709
302.159 496.64282 517.50977
307.53201 497.34177 519.36511
298.94354 503.45648 515.05139
302.42456 502.10944 516.59973
307.79349 502.81378 518.45624
302.69058 507.56937 515.68872
308.05536 508.27917 517.54626
313.34711 507.16107 519.69623
302.86826 511.20483 515.08069
306.44077 511.6813 516.32129
311.8125 512.39111 518.17163
306.70496 517.13147 515.40894
312.07257 517.84668 517.26044
317.36768 516.73767 519.40491
312.33313 523.29553 516.34821
317.62396 522.1936 518.49408
321.30228 524.48486 519.41132
312.50714 526.92358 515.73938
317.88074 527.64288 517.58228
321.47168 528.11902 518.80383
314.46954 530.7901 515.7464
318.05222 531.27118 516.97375
321.64133 531.74976 518.1958
325.23679 532.22571 519.41254
13.318258 -802.07605 522.1676
18.27203 -802.66858 524.64343
58.264748 -637.98413 520.93658
63.32864 -638.34076 523.25647
26.861288 -490.36469 524.81586
27.079456 -486.24384 524.32819
27.297712 -482.12558 523.84045
27.51606 -478.00995 523.35254
30.848297 -478.13736 524.95148
27.734495 -473.89694 522.86462
31.065891 -474.02109 524.46246
28.062338 -467.7326 522.13245
31.392464 -467.85196 523.72876
28.390369 -461.57355 521.40002
31.719221 -461.68805 522.99487
28.609186 -457.47098 520.91162
31.937187 -457.58228 522.50543
32.155247 -453.47913 522.01587
32.373409 -449.37857 521.52625
175.28339 -317.51205 524.73193
175.45953 -313.48206 524.23187
175.72388 -307.44232 523.48175
175.98833 -301.40796 522.73145
177.9313 -297.37671 522.89319
179.87315 -293.34576 523.05432
183.41258 -293.31931 524.37231
176.60602 -287.35211 520.98022
180.13623 -287.32239 522.30286
176.87099 -281.33765 520.22943
180.39943 -281.30435 521.55133
180.575 -277.29587 521.05017
191.20135 -277.18707 524.98175
180.75063 -273.29007 520.54901
191.37343 -273.17419 524.47906
191.63165 -267.16016 523.72485
195.27103 -265.11255 524.77167
195.44209 -261.10535 524.26825
195.61324 -257.1008 523.76483
197.56328 -253.07339 523.9071
197.819 -247.07431 523.15125
198.07512 -241.08035 522.39539
203.32782 -242.99266 524.57709
196.46997 -237.1181 521.24652
201.8017 -237.02771 523.1781
196.64149 -233.12955 520.74261
201.97137 -233.03574 522.67346
207.3157 -232.94165 524.59344
196.81303 -229.14374 520.23853
202.22607 -227.05315 521.9165
207.48354 -228.94897 524.08813
202.48106 -221.07593 521.1593
207.73578 -222.9653 523.3302
211.30515 -222.89677 524.60175
202.65112 -217.09467 520.65442
207.98802 -216.98697 522.5719
211.5555 -216.91507 523.84296
204.59718 -213.07907 520.79022
208.15627 -213.00499 522.06635
211.72252 -212.93085 523.33691
215.29587 -212.85666 524.60205
204.76675 -209.10204 520.28491
208.40881 -207.03738 521.30774
211.8896 -208.94931 522.83087
215.4617 -208.87288 524.09558
208.66151 -201.07513 520.54895
212.14038 -202.98236 522.07153
217.49924 -202.86269 523.96509
208.83009 -197.10388 520.04297
212.39133 -197.02077 521.31207
217.74734 -196.89612 523.20471
212.55872 -193.04996 520.8056
217.91286 -192.92197 522.69775
223.28108 -192.79402 524.5788
212.72621 -189.08183 520.29901
217.53842 -187.64255 521.81201
223.44476 -188.81926 524.07117
216.62469 -181.06161 520.54779
221.90144 -182.90788 522.6839
227.27541 -182.77177 524.55542
216.79117 -177.09933 520.04053
222.14825 -176.95816 521.9223
227.51932 -176.81712 523.79309
222.3129 -172.99524 521.41449
227.68204 -172.85095 523.28473
231.27074 -172.75488 524.52423
223.12791 -167.69908 520.9455
227.84483 -168.88747 522.77631
231.43225 -168.78923 524.01544
224.59279 -161.07124 520.51508
228.0892 -162.94762 522.01349
231.67468 -162.84615 523.2522
235.26704 -162.74481 524.48529
41.438911 -155.56743 521.07196
224.75713 -157.11801 520.00665
228.33372 -157.01315 521.25043
231.91727 -156.90845 522.48865
235.50769 -156.80389 523.72131
228.49686 -153.06044 520.74158
232.0791 -152.95357 521.97949
235.66823 -152.84688 523.21191
228.66008 -149.11041 520.2326
232.32202 -147.02664 521.21558
235.82884 -148.89255 522.70233
232.56512 -141.10513 520.45135
237.24094 -143.58769 522.43158
243.26218 -142.74298 524.38452
236.31122 -137.04578 521.17303
243.49951 -136.81593 523.61896
247.10384 -136.70135 524.83356
236.47218 -133.10225 520.66309
236.63324 -129.16142 520.15295
1554.6155 -105.41335 523.12305
1554.4716 -101.72044 522.96527
1554.3274 -98.028458 522.80701
1554.1108 -92.49234 522.5686
267.03522 -88.788971 524.67267
1553.894 -86.958115 522.3291
256.50134 -81.362923 520.07855
261.91309 -81.149231 521.86804
267.26224 -82.898865 523.90295
270.96323 -80.795113 524.82428
1553.7491 -83.269882 522.16876
267.48944 -77.014191 523.13293
271.11337 -76.870888 524.31079
1553.5315 -77.739426 521.92725
267.64102 -73.094688 522.61945
271.26358 -72.949379 523.79712
1553.3136 -72.210884 521.68475
267.86859 -67.220871 521.84894
271.48907 -67.072548 523.02643
1553.1681 -68.526459 521.5224
268.09634 -61.352493 521.07819
271.71478 -61.201149 522.25543
1552.9495 -63.00174 521.27789
268.24832 -57.443863 520.56415
271.86539 -57.290512 521.74127
277.30389 -57.061543 523.49573
1552.7305 -57.478947 521.03241
268.40036 -53.537956 520.04993
272.01605 -53.382591 521.22699
277.45251 -53.150635 522.98126
282.90176 -52.919777 524.72424
1552.5112 -51.958572 520.78577
272.16684 -49.477394 520.71252
278.2551 -47.914257 522.48938
283.12173 -47.054413 523.95203
1552.2914 -46.440144 520.53815
279.71109 -41.35413 522.01978
283.34189 -41.194496 523.17957
286.90631 -42.989288 524.59119
1552.1447 -42.762493 520.37244
283.4888 -37.291515 522.66437
287.12454 -37.130524 523.81842
1551.9243 -37.247978 520.12292
283.63577 -33.391262 522.14905
287.27014 -33.22831 523.30304
283.85645 -27.546329 521.37585
287.48871 -27.38044 522.52966
293.16534 -21.286118 523.47534
291.48853 -17.47661 522.38812
296.95361 -17.222822 524.09875
291.63321 -13.58609 521.87195
297.09619 -13.329411 523.58258
291.8504 -7.7557721 521.09741
297.31021 -7.4947548 522.80798
302.78244 -7.2351894 524.50708
292.06784 -1.9309241 520.32263
297.52444 -1.665571 522.03308
302.9935 -1.4017169 523.73212
297.66742 2.2168965 521.5163
303.13437 2.483603 523.21533
297.81055 6.0966129 520.99939
303.27509 6.3663321 522.6983
310.58392 6.7229729 524.94263
299.84357 12.002451 520.79175
303.48663 12.184806 521.92249
310.7912 12.547117 524.16687
301.87793 17.905197 520.58105
310.99863 18.365795 523.39087
303.83966 21.869492 520.62885
311.13705 22.241266 522.87329
307.62527 25.926643 521.23621
311.34488 28.048996 522.09668
311.55292 33.85125 521.31964
311.69174 37.715763 520.80145
323.47485 61.452522 521.01392
327.13611 61.653008 522.11084
330.80344 61.852352 523.20209
323.61005 65.303436 520.49469
327.33673 67.430771 521.33209
331.00171 67.632996 522.4234
338.34897 68.034531 524.58862
327.53757 73.203018 520.55304
331.20035 73.408005 521.64453
136.83112 87.453262 524.10028
137.16127 93.269882 523.25464
140.61755 93.550049 524.68848
137.38168 97.14357 522.69031
140.8365 97.426353 524.12396
137.7128 102.948 521.84302
142.78632 101.44184 524.27332
143.11447 107.24757 523.42493
141.71472 112.90106 521.86163
146.90387 113.33897 524.00116
141.93489 116.76208 521.29504
147.12181 117.2039 523.4342
149.07086 121.21399 523.57825
152.54039 121.50941 524.99615
149.28857 125.07407 523.01044
152.75632 125.37226 524.42798
153.40622 136.94194 522.72131
156.87744 137.24667 524.13354
152.0014 142.56116 521.15808
157.20096 143.02463 523.2785
160.57051 141.40588 524.97089
157.52496 148.79637 522.42267
160.89209 147.18304 524.11499
377.79727 148.79744 524.42499
377.91388 152.61272 523.90442
381.61993 152.83749 524.92371
378.03061 156.42523 523.38361
381.73514 156.65173 524.4032
374.50903 161.90805 521.57623
378.2059 162.1385 522.60211
381.90796 162.36737 523.62207
385.61554 162.595 524.63623
378.38141 167.84625 521.82019
382.08115 168.07767 522.84064
387.642 168.42242 524.3595
374.80545 171.41298 520.27216
378.4982 171.64742 521.29865
382.1969 171.88097 522.3194
387.75537 172.22821 523.83868
378.67432 177.3443 520.51599
382.37061 177.58032 521.53717
387.9256 177.93134 523.05713
393.43552 176.37802 524.82556
176.75482 183.02267 524.53442
382.54449 183.27411 520.75458
388.09601 183.62894 522.27515
393.60248 182.08078 524.04443
397.3732 184.21338 524.78192
177.07082 188.76703 523.67126
382.66052 187.06627 520.23254
386.35828 187.30502 521.24854
391.91547 187.66016 522.76074
397.48315 188.01231 524.26117
177.28178 192.59248 523.09528
180.77718 192.92596 524.47632
386.53027 192.99028 520.46564
392.0278 191.45381 522.23938
397.5932 191.80847 523.74023
401.31039 192.04289 524.73291
177.49292 196.41484 522.5188
180.98708 196.7506 523.90002
392.1965 197.13873 521.45685
397.75848 197.49721 522.9585
401.47339 197.73413 523.95166
405.24728 199.8667 524.67859
177.81044 202.14188 521.65344
183.05162 202.65073 523.72247
390.51434 202.69688 520.1712
178.12828 207.86278 520.78711
181.61751 208.20625 522.16803
186.86639 208.71878 524.22949
181.82814 212.01854 521.58984
187.07468 212.53482 523.65125
182.14459 217.73067 520.72162
186.76956 217.55956 522.65112
188.21442 222.75334 522.33557
192.85182 222.58383 524.25513
187.91003 227.76764 521.33386
193.1619 228.29625 523.38525
196.67303 228.64677 524.74622
409.71396 226.59328 522.01282
413.43271 226.83786 522.99091
417.15649 227.08078 523.96301
420.88525 227.32204 524.92914
188.11949 231.56796 520.75342
193.36894 232.10034 522.80481
196.87848 232.45335 524.16577
409.87372 232.2522 521.23004
413.59018 232.49928 522.20868
417.31165 232.74466 523.1814
421.03809 232.98837 524.14807
191.93013 237.62105 521.25024
197.08414 236.25679 523.5849
200.59944 236.61087 524.9408
297.8844 237.30949 522.65405
303.32019 237.76645 524.41968
411.89081 238.03038 520.93646
417.46701 238.40302 522.39935
423.64374 237.55394 524.18115
193.99152 243.49365 521.06079
197.39314 241.9556 522.71265
200.90598 242.31335 524.0686
298.1203 242.98587 521.823
303.5524 243.44753 523.58905
413.85312 241.92206 520.90405
417.57074 242.17157 521.87775
421.29333 242.41936 522.84546
426.88721 242.78754 524.28516
194.19954 247.2851 520.47852
197.70259 247.6481 521.83954
201.21317 248.00978 523.19562
413.95847 245.68619 520.38184
417.7265 247.81885 521.09491
421.44684 248.06909 522.06329
426.98718 246.55736 523.7644
197.90918 251.43893 521.25684
203.17615 251.98419 523.28845
311.12216 251.62941 524.81586
417.88251 253.4606 520.31171
421.60052 253.7133 521.2807
427.08728 250.3244 523.24347
432.68616 250.69417 524.6723
201.72603 257.48645 521.73816
206.37975 257.34235 523.63519
202.03452 263.16367 520.86237
207.82407 262.51645 523.30566
212.59027 264.26901 524.90088
202.24051 266.94424 520.27795
221.85179 306.54486 521.11871
225.38115 306.93381 522.44592
222.05226 310.30249 520.52985
227.44618 312.76801 522.22351
232.6564 311.47198 524.49622
227.74356 318.40222 521.33917
232.94981 317.11322 523.61249
236.59351 319.38403 524.63
227.94226 322.15381 520.74915
233.2437 322.74802 522.72784
236.78757 323.14169 524.04028
229.90491 326.10242 520.81976
231.77148 328.17462 521.18311
236.9821 326.89636 523.45007
240.53133 327.29068 524.75751
233.7348 332.12216 521.25098
237.27438 332.52191 522.56384
240.82108 332.91992 523.87158
234.03009 337.73758 520.36359
237.56717 338.14105 521.6767
243.41473 337.55923 524.05042
237.76268 341.88281 521.08466
243.07976 342.48798 523.04443
248.4109 343.08948 524.99396
237.95842 345.62134 520.49219
241.59622 347.8967 521.50421
246.82419 346.63391 523.75305
241.888 353.50018 520.61462
247.11179 352.24432 522.86414
252.54155 354.7229 524.51044
242.08267 357.23135 520.02087
247.3999 357.84824 521.9743
252.73111 358.46143 523.91742
247.59229 361.5799 521.38049
252.92091 362.19669 523.32391
256.48257 362.60532 524.61267
248.43994 366.61957 520.8045
253.2061 367.79309 522.4328
256.6709 366.33975 524.01898
249.94223 372.96518 520.24603
253.49176 373.383 521.54071
256.95383 371.93494 523.12756
260.51807 372.34766 524.41174
253.68251 377.10526 520.94537
257.23721 377.52356 522.23517
262.58307 378.14709 524.15948
253.8735 380.82428 520.34955
257.52124 383.10406 521.34161
262.76971 381.87213 523.56433
257.80569 388.67807 520.44714
263.05011 387.45316 522.67072
268.40308 388.08167 524.58569
261.55026 392.81567 521.13586
266.89581 393.45056 523.05408
272.25507 394.08142 524.96198
261.73871 396.52646 520.53876
267.08167 397.16498 522.4574
272.43826 397.79944 524.36572
267.36081 402.72998 521.56146
272.62167 401.51416 523.76898
267.6405 408.28848 520.66449
272.89728 407.07971 522.87305
276.47296 407.50592 524.13904
269.60703 412.20679 520.70435
273.17331 412.6387 521.97607
276.74637 413.06848 523.24261
280.32611 413.49615 524.50391
269.79315 415.90601 520.10541
273.35767 416.3403 521.3775
276.92892 416.77249 522.64435
280.50693 417.20258 523.90601
273.63467 421.88617 520.47864
277.20325 422.32196 521.74603
281.94269 422.28241 523.52692
277.47806 427.86484 520.84674
283.37708 427.35919 523.1474
288.21606 429.17004 524.61908
277.66159 431.55569 520.24658
283.02124 432.21411 522.13855
288.39423 432.8681 524.02002
282.66708 437.06088 521.12854
286.87161 438.18854 522.49384
292.16171 436.99829 524.66815
287.67755 442.56561 522.00232
292.42706 442.53741 523.76849
296.1077 444.82065 524.71155
287.32068 447.40491 520.99207
292.6929 448.06995 522.86792
296.2832 448.51028 524.11145
289.3783 453.14801 520.71667
292.87042 451.75391 522.26685
296.45892 452.19662 523.5108
300.05405 452.63712 524.74945
293.13718 457.27319 521.36438
296.72296 457.71951 522.60895
300.22818 456.32248 524.1488
293.40439 462.78592 520.46088
296.98755 463.23587 521.70612
302.28839 462.06604 523.86401
297.16403 466.90845 521.1037
302.54904 467.58228 522.96155
307.94727 468.25183 524.80865
297.34091 470.57825 520.50067
302.18286 472.40366 521.95227
308.11862 471.92825 524.20715
303.6124 477.44577 521.56
308.37622 477.43707 523.30365
311.97906 477.88593 524.52917
306.83752 482.71179 521.78345
312.23444 483.39163 523.62537
315.84106 483.84149 524.84631
307.0108 486.37433 521.17957
312.40497 487.05768 523.02222
316.0097 487.51004 524.24359
309.0657 492.09177 520.88916
312.66125 492.55011 522.11658
317.43808 492.54663 523.84467
312.918 498.03589 521.2099
318.2363 496.89343 523.34326
321.92889 499.17969 524.25616
313.08945 501.68866 520.60486
316.68686 502.15051 521.82813
322.09579 502.83838 523.65234
316.94193 507.62628 520.92041
321.71762 507.63412 522.64417
327.68179 507.18018 524.86224
317.19714 513.09589 520.01141
323.14307 512.65521 522.24207
327.9288 512.66187 523.95599
331.62854 514.94696 524.85706
322.76569 517.43964 521.2323
328.17624 518.1369 523.04877
331.79175 518.59827 524.25262
323.58957 522.37323 520.62628
328.34149 521.78247 522.4433
331.95517 522.24615 523.64771
335.57513 522.70734 524.84674
327.41623 527.69366 521.02948
332.20074 527.71143 522.73938
335.81793 528.17615 523.93915
328.83862 532.69916 520.62396
332.44678 533.16998 521.83002
338.42151 532.73438 524.0293
22.621841 -815.96472 528.51898
22.83112 -811.72583 528.04816
18.061949 -806.89673 525.11188
23.040337 -807.48962 527.57751
23.249502 -803.25598 527.10706
27.441122 -511.08484 528.05652
25.989449 -506.87424 526.76563
29.544514 -502.8898 527.88354
29.761606 -498.75784 527.39508
28.310993 -494.55835 526.10498
30.196033 -490.5018 526.41791
30.413368 -486.37769 525.9292
30.630791 -482.25623 525.44037
177.59894 -345.80185 529.56171
174.22771 -341.74792 527.73126
177.77356 -341.75079 529.06134
174.40352 -337.70197 527.23145
177.94823 -337.70242 528.56097
174.57938 -333.65866 526.73163
178.12294 -333.65668 528.06061
174.84329 -327.59903 525.98181
178.38512 -327.59341 527.30994
176.87735 -321.5401 525.89557
178.82233 -317.5004 526.05865
178.99731 -313.46796 525.55804
189.65552 -313.42322 529.50354
189.91284 -307.3692 528.75018
193.56386 -305.3316 529.80212
191.9523 -301.30908 528.64801
192.1234 -297.27902 528.14539
186.95946 -293.29251 525.68488
192.29456 -293.25159 527.6427
197.64438 -293.21002 529.58954
192.55142 -287.21582 526.88867
197.89856 -287.16901 528.83435
201.55719 -285.12341 529.87207
192.8084 -281.18542 526.1344
198.15283 -281.13333 528.07904
201.72552 -281.09821 529.36804
194.75824 -277.15024 526.28137
198.32243 -277.1131 527.57544
201.89392 -277.07568 528.86395
194.92911 -273.13501 525.7782
198.4921 -273.09555 527.07178
202.06238 -273.05585 528.35986
205.63991 -273.01584 529.64233
197.53116 -267.7572 525.96918
202.31519 -267.03143 527.60352
205.80721 -268.9964 529.13776
199.00146 -261.05896 525.56049
202.5681 -261.01233 526.84717
207.84912 -262.94958 529.01862
199.17139 -257.05209 525.05658
202.73682 -257.00317 526.34283
208.0994 -256.92938 528.26111
202.90594 -252.9967 525.83856
206.47739 -252.9453 527.11884
211.84891 -252.8678 529.02814
203.07454 -248.9929 525.33398
206.64474 -248.93922 526.61383
212.01442 -248.85834 528.52246
206.89618 -242.93559 525.85632
212.26309 -242.84964 527.76398
217.64426 -242.76305 529.66052
207.14786 -236.93704 525.09863
212.51198 -236.84601 527.00543
217.89035 -236.75471 528.90106
212.67795 -232.84726 526.49963
218.05446 -232.75261 528.39459
221.64822 -232.68935 529.65051
212.84392 -228.8512 525.99365
218.21854 -228.7532 527.88812
221.81105 -228.68774 529.14362
1559.2522 -227.77843 528.0083
214.88162 -222.82817 525.8678
218.46521 -222.75946 527.12836
222.05585 -222.69069 528.3833
225.6535 -222.62181 529.63257
1559.0469 -222.19644 527.8006
216.92096 -216.8071 525.7384
222.30057 -216.69901 527.62274
225.89633 -216.62685 528.87152
1558.8405 -216.6161 527.5918
218.87631 -212.78241 525.86163
222.46381 -212.70811 527.1156
227.85907 -212.59659 528.98541
1558.7028 -212.89694 527.4516
219.04088 -208.79642 525.3548
222.62712 -208.71992 526.6084
228.02048 -208.60512 528.47766
1558.4957 -207.31985 527.24011
222.87222 -202.74301 525.84741
227.6362 -203.30113 527.59363
232.49219 -201.86563 529.07642
1558.2883 -201.7444 527.02728
223.11748 -196.77147 525.0863
226.70691 -196.68839 526.33331
232.10498 -196.56377 528.19263
1558.1497 -198.02853 526.88458
226.86925 -192.70876 525.82544
232.2654 -192.5809 527.6842
1557.9413 -192.45642 526.66925
227.03165 -188.73181 525.3175
232.42587 -188.60071 527.17578
1557.7324 -186.88597 526.4527
232.66675 -182.63583 526.41296
1557.593 -183.17348 526.3075
232.90778 -176.6763 525.6499
1557.3833 -177.60641 526.0885
234.86635 -172.65891 525.75806
1557.1731 -172.04109 525.86823
235.02657 -168.69112 525.24902
1557.0328 -168.33202 525.72058
238.94582 -160.66133 525.45807
242.55124 -160.5592 526.67987
247.97293 -160.40631 528.50122
253.716 -152.31598 529.28979
246.63329 -148.56714 526.36523
252.05919 -148.40511 528.17694
246.86847 -142.63155 525.59949
252.2914 -142.46483 527.41064
250.71489 -136.58701 526.04254
262.04349 -124.37918 528.10016
265.75244 -122.2837 529.02966
265.97836 -116.35838 528.26141
266.12912 -112.41177 527.74902
266.27988 -108.46785 527.23657
262.95621 -100.71978 525.02686
266.50629 -102.55741 526.46765
270.13904 -102.42717 527.64655
266.73282 -96.65239 525.69861
270.36356 -96.519142 526.8772
266.88397 -92.719322 525.18567
172.70456 -87.474922 527.94543
270.66324 -88.651703 525.85101
270.81317 -84.722046 525.33771
177.27332 -65.603104 526.38
182.38187 -69.301971 528.92474
177.46283 -61.663307 525.84906
282.75522 -56.833645 525.23889
286.39795 -56.68243 526.39331
291.87463 -56.456692 528.11353
297.36389 -56.232044 529.82227
286.54309 -52.766605 525.8786
292.0177 -52.537964 527.59875
297.50485 -52.310444 529.30731
286.68832 -48.853504 525.36377
292.16083 -48.621956 527.08374
297.6459 -48.391556 528.79218
301.31091 -48.238728 529.92346
294.12964 -44.630711 527.14001
298.63565 -21.035557 525.18317
302.2908 -20.869417 526.31409
309.55084 -22.491934 528.81665
302.43115 -16.970413 525.79797
309.75708 -16.636419 528.04242
302.57159 -13.074138 525.28174
309.89468 -12.73638 527.52612
310.03238 -8.8390751 527.0097
310.2392 -2.9986024 526.23486
310.44589 2.836566 525.45959
130.63156 38.475742 529.67047
341.07446 39.227444 529.54962
130.85016 42.389137 529.112
337.50986 42.916321 527.95862
341.20178 43.103859 529.03186
134.53467 46.549026 529.99506
337.63873 46.788216 527.44055
146.90717 82.444771 529.23431
142.0228 87.867149 526.24921
147.12248 86.335403 528.67047
144.08174 93.829277 526.11755
147.44592 92.165283 527.82397
150.92654 92.441345 529.24335
144.29922 97.708199 525.55273
147.76981 97.989082 526.97668
152.99133 98.408493 529.10278
147.98604 101.86755 526.41132
153.20535 102.29083 528.53711
148.31088 107.67914 525.56238
151.7856 107.96553 526.9809
155.16125 106.31217 528.6778
152.10869 113.77488 526.13092
157.22641 112.27037 528.53198
152.32442 117.64368 525.56372
157.54655 118.08089 527.68097
157.7601 121.95058 527.11304
380.70178 122.22474 529.08167
157.97385 125.81725 526.54462
382.09503 127.40929 528.72662
383.48694 132.59097 528.37146
160.35643 137.55034 525.54089
383.0188 137.66141 527.51019
383.13287 141.48749 526.99048
381.44733 147.11066 525.70416
385.16095 147.33154 526.71716
175.18254 154.19832 528.836
385.33133 153.06093 525.93713
177.14621 158.20703 528.95471
387.30249 156.98862 525.92078
392.88058 157.32285 527.42645
396.60632 157.54384 528.42224
400.33722 157.7634 529.41205
177.35455 162.05856 528.38208
389.32861 162.82141 525.64441
393.04684 163.0463 526.64661
396.71561 161.36203 527.90271
178.28674 168.52318 527.65704
182.83043 166.37936 529.87653
393.21326 168.76422 525.86646
396.8797 167.0838 527.12311
400.66074 169.21463 527.85388
177.98094 173.59457 526.66168
183.14023 172.15147 529.01587
393.32434 172.57249 525.34607
397.04398 172.80008 526.34314
400.76877 173.02621 527.33417
178.1902 177.43372 526.0874
183.45049 177.91739 528.15448
186.96735 178.2382 529.52582
397.15363 176.60727 525.82288
402.74112 176.94821 527.30701
408.3389 177.28619 528.77905
181.90372 181.59491 526.89148
187.17282 182.08057 528.95087
397.26337 180.4117 525.30249
402.90237 182.6572 526.52698
408.4967 182.99886 527.99988
182.21597 187.34659 526.02838
187.48181 187.83765 528.08783
190.90004 186.24411 529.74188
403.06381 188.36069 525.7467
408.65472 188.70604 527.22034
184.2805 193.25784 525.85266
187.79111 193.58862 527.22382
192.41614 192.74901 529.23572
406.89661 192.3916 526.21008
184.48859 197.08517 525.27612
187.9976 197.41846 526.64728
191.51411 197.75041 528.01337
195.03807 198.08105 529.37439
407.00284 196.18906 525.68976
188.20435 201.24515 526.07025
191.71927 201.57961 527.43634
195.24165 201.91272 528.79736
408.97147 200.10115 525.66003
424.01904 204.82338 529.00671
188.41132 205.06873 525.49286
192.02754 207.31708 526.57001
197.31113 207.82175 528.60889
416.64096 208.15523 526.56531
422.24811 208.50418 528.00854
192.33612 213.04843 525.70276
197.6163 213.55873 527.7417
202.91104 214.06599 529.77045
416.74387 211.94585 526.04523
422.34869 212.29721 527.48901
192.54219 216.8651 525.12402
197.81989 217.379 527.16296
203.11234 217.89011 529.19171
309.7597 217.46106 529.79108
416.84686 215.73372 525.5249
423.1058 217.38939 526.95593
197.50513 222.40985 526.16461
309.91061 221.26952 529.2395
422.65112 223.65981 525.92944
428.25894 224.01509 527.36298
199.98801 225.18365 526.68213
200.1916 228.99588 526.10217
311.96167 227.12256 528.99048
424.61899 227.56163 525.88922
428.35764 227.79953 526.84332
432.10117 228.03574 527.79138
200.39545 232.80493 525.52173
314.01077 232.97289 528.74115
317.66403 233.26755 529.8938
424.71933 231.34171 525.36902
428.45645 231.58121 526.32355
432.19846 231.81898 527.27203
306.95236 238.06894 525.58942
312.3378 236.62227 527.60938
317.81223 237.06813 529.34149
428.60486 237.2482 525.54346
432.3446 237.48831 526.49268
437.96381 237.84509 527.90424
443.54596 236.3075 529.56274
312.564 242.31262 526.77972
318.03479 242.76309 528.51233
321.69025 243.06123 529.66003
432.49097 243.15207 525.71289
438.10648 243.51279 527.12531
443.68524 241.97986 528.78503
447.4425 242.21469 529.71021
312.7905 247.99704 525.94946
318.25769 248.45212 527.68268
321.91071 248.75331 528.83069
432.58875 246.92415 525.19287
436.32907 247.1671 526.13678
441.94965 247.52725 527.54089
447.57968 247.88388 528.93286
451.33929 248.11926 529.85266
211.98871 252.88617 526.651
314.76123 251.93596 525.97528
318.40649 252.24084 527.12915
322.05789 252.54408 528.27734
325.71539 252.84566 529.41998
436.42529 250.93822 525.61688
442.04355 251.30075 527.02173
447.67126 251.6597 528.41437
451.42935 251.89662 529.33466
318.55545 256.02661 526.57526
325.86111 256.6355 528.86664
447.76294 255.43277 527.89563
451.51947 255.67123 528.81641
463.07385 267.69687 529.99066
237.98338 312.05072 526.46155
243.32423 312.62573 528.41644
246.89445 313.00705 529.71283
471.61865 313.24069 525.57074
477.26175 313.61462 526.9054
482.9136 313.98438 528.22784
486.68726 314.22824 529.1012
490.465 314.47043 529.96814
238.17635 315.81622 525.8728
241.83023 318.08405 526.88251
247.08321 316.77859 529.12451
479.22507 317.47998 526.83075
482.99286 317.72733 527.71088
486.76498 317.97266 528.58478
490.54141 318.21588 529.45258
242.64682 322.53943 526.41211
247.36679 322.42947 528.24121
250.93956 322.81482 529.53278
244.08757 327.68323 526.05981
247.65083 328.07394 527.35693
253.0097 328.65649 529.29224
244.27895 331.43951 525.46954
247.84048 331.83264 526.76685
253.19676 332.41876 528.70245
248.12558 337.46442 525.88086
251.69141 337.85919 527.17334
255.17091 336.37372 528.7558
251.97424 343.48795 526.28674
257.24011 342.2045 528.51086
252.1631 347.23618 525.69507
257.51941 347.8338 527.62415
262.8895 348.42764 529.54272
252.3522 350.98114 525.10297
257.70593 351.58237 527.03241
263.07343 352.17978 528.95135
257.98618 357.19876 526.14392
263.34979 357.80151 528.06342
266.84332 356.32678 529.63208
261.83887 363.21445 526.5354
267.1174 361.94727 528.7439
270.79791 364.22055 529.71545
262.0246 366.95245 525.94214
267.39194 367.56128 527.85474
270.97928 367.96451 529.1228
264.08911 372.75839 525.6908
267.57526 371.29962 527.26141
272.95694 371.90698 529.16125
267.85071 376.9007 526.37048
272.60016 376.82275 528.15942
276.91132 379.78845 529.23511
268.12662 382.49524 525.4787
271.70682 382.90787 526.74792
277.09094 383.52301 528.64117
271.88934 386.63565 526.15302
277.27081 387.25433 528.04675
282.66571 387.8689 529.92993
272.07208 390.36017 525.55774
277.54108 392.84479 527.1543
282.84317 391.60046 529.33557
277.81177 398.42877 526.26086
283.1098 397.19138 528.44312
286.71088 397.60419 529.69226
277.99255 402.14703 525.66467
283.37686 402.77576 527.5498
286.97528 403.19208 528.79944
279.96521 406.07352 525.6983
281.85037 408.14038 526.02747
287.15189 406.91302 528.20361
290.75516 407.32959 529.4483
283.82318 412.06567 526.05847
287.41718 412.48788 527.30896
291.01782 412.90796 528.5542
284.09161 417.63049 525.16235
287.68295 418.05624 526.41339
293.6261 417.52222 528.685
287.86044 421.76413 525.81573
291.45663 422.19009 527.06189
296.86414 422.82471 528.92041
288.03815 425.46872 525.21765
291.72064 427.7489 526.16504
297.03741 426.53519 528.32324
291.98511 433.30118 525.26727
297.29773 432.09439 527.42657
302.71164 432.73337 529.27576
297.5585 437.64703 526.52893
302.96848 438.29135 528.37915
306.58368 438.71777 529.60541
297.73267 441.34442 525.92993
303.13989 441.99222 527.78076
306.75336 442.42102 529.00745
299.79321 447.10236 525.64954
303.39752 447.53699 526.8822
307.0083 447.96936 528.1095
310.54114 446.55035 529.63043
303.65558 453.07523 525.98279
307.26364 453.5112 527.21069
312.02911 452.85654 529.0387
303.82794 456.763 525.38251
307.43408 457.20151 526.61072
312.85663 457.85391 528.44275
307.69037 462.7301 525.71008
313.02472 461.54425 527.84314
318.45721 462.19577 529.66486
311.46991 466.85345 526.33337
316.89517 467.51144 528.15881
311.72415 472.37357 525.43195
317.14539 473.03705 527.2583
322.49731 471.8526 529.37384
317.31259 476.71613 526.65753
322.74371 477.37827 528.47375
326.37302 477.81631 529.67743
318.13788 481.69141 526.05786
322.99081 482.89618 527.57239
326.53574 481.49854 529.07709
319.62082 487.95999 525.45953
323.23834 488.4075 526.6701
326.78058 487.01483 528.17584
330.41159 487.4563 529.37531
323.40363 492.0773 526.06793
327.02567 492.52469 527.27362
332.47128 493.19086 529.07117
323.56918 495.7438 525.46533
327.27139 498.02618 526.37024
332.63226 496.86313 528.46985
327.51743 503.5213 525.46582
332.87415 502.36508 527.56689
338.32544 503.03497 529.35547
333.11646 507.86035 526.66296
338.56366 508.53546 528.45282
342.2034 508.98215 529.63867
331.46558 511.29239 525.46106
336.90689 511.97229 527.25439
342.36066 512.64703 529.0368
337.14734 517.45776 526.34943
342.59698 518.13782 528.13306
346.16037 516.75739 529.61597
339.20132 523.16589 526.04028
342.83374 523.62189 527.22839
346.39429 522.24658 528.7124
350.11703 524.52606 529.5882
339.36127 526.81519 525.43597
342.99185 527.2735 526.62469
346.6286 527.72925 527.80786
350.27148 528.18231 528.9856
343.22946 532.74432 525.71814
346.78519 531.37964 527.20435
352.24969 532.06171 528.96887
346.9418 535.02722 526.6001
352.40363 535.71252 528.3656
182.41608 -357.98871 533.05017
182.58885 -353.92609 532.54895
187.94287 -353.93906 534.52454
177.42436 -349.85556 530.06201
182.84808 -347.8374 531.79724
188.19949 -347.845 533.77148
191.86203 -345.81769 534.82892
184.88785 -341.75497 531.70496
188.45621 -341.75629 533.01843
192.03201 -341.75705 534.32629
186.8438 -337.70123 531.85992
192.20204 -337.6991 533.82367
187.01563 -333.64951 531.35815
192.3721 -333.6438 533.32111
195.95296 -333.63934 534.62225
189.05557 -327.57373 531.26111
192.62729 -327.56622 532.56714
197.42984 -326.87964 534.21509
189.31262 -321.50504 530.50793
192.88257 -321.49399 531.81311
196.45988 -321.48248 533.11267
200.04454 -321.47052 534.40662
189.48404 -317.4628 530.0058
193.05281 -317.4494 531.31042
196.62895 -317.43555 532.60944
200.21242 -317.42126 533.90289
193.2231 -313.40747 530.80768
196.79805 -313.39127 532.1062
202.17514 -313.36615 534.04279
193.39345 -309.36819 530.30493
197.05182 -307.3302 531.35132
202.42621 -307.29987 533.28674
207.89798 -305.24585 534.9585
197.30569 -301.27451 530.59631
202.6774 -301.23895 532.53064
208.06363 -301.20267 534.45374
197.47501 -297.24094 530.09296
202.84491 -297.20193 532.02649
208.22934 -297.1622 533.94885
203.01248 -293.16754 531.52234
208.3951 -293.12442 533.44403
211.99313 -293.09515 534.71759
203.1801 -289.13586 531.01819
207.47534 -286.41217 532.17645
212.24005 -287.04041 533.95953
207.09908 -281.04492 531.29041
212.48706 -280.99106 533.20148
216.00687 -282.97186 534.72095
207.26566 -277.01898 530.78564
212.65179 -276.9617 532.69604
216.25212 -276.92313 533.9621
209.22466 -272.97559 530.91925
212.81659 -272.93503 532.19055
216.41568 -272.89423 533.45624
220.0219 -272.85312 534.71619
209.39073 -268.95386 530.41418
212.98145 -268.91104 531.68506
216.5793 -268.86798 532.95026
220.18428 -268.82468 534.20978
213.22884 -262.88043 530.9267
216.82484 -262.83401 532.19128
222.23306 -262.76392 534.07678
213.47635 -256.85516 530.16827
217.0705 -256.80539 531.43219
222.47592 -256.73035 533.31677
217.23471 -252.7899 530.92621
222.63828 -252.7115 532.81018
228.05592 -252.63271 534.6828
217.39838 -248.77708 530.41992
222.80006 -248.69537 532.30334
228.21584 -248.6133 534.17535
223.04312 -242.67654 531.54303
228.45607 -242.58954 533.41418
232.07402 -242.53131 534.65399
221.48537 -236.69366 530.15735
226.892 -236.60181 532.03046
232.31259 -236.50967 533.89221
227.05295 -232.59421 531.52307
232.47165 -232.49881 533.38428
227.21388 -228.58932 531.01563
232.63068 -228.49066 532.87622
229.25818 -222.55286 530.87622
232.8698 -222.48383 532.11426
229.4991 -216.55463 530.11462
233.10883 -216.48235 531.35211
233.26825 -212.48494 530.84393
233.42775 -208.49023 530.33569
269.31735 -124.14053 530.46564
289.18622 -80.095398 530.6286
292.7081 -83.895523 532.28632
296.37939 -83.759315 533.42413
300.05695 -83.623566 534.55609
292.84988 -79.956825 531.77216
296.59006 -77.849762 532.65271
300.33508 -75.741264 533.52728
300.47424 -71.804184 533.01276
300.61349 -67.86982 532.49811
297.22302 -60.156368 530.3371
300.82251 -61.973701 531.72595
312.07202 -55.639256 534.31268
303.00757 -52.084332 531.00134
312.2074 -51.710144 533.79749
312.3428 -47.783745 533.28223
312.47833 -43.860065 532.76678
312.68176 -37.979984 531.99353
316.43481 -35.864849 532.84344
320.12607 -35.709473 533.94531
312.88531 -32.105339 531.21997
316.56915 -31.947481 532.3277
320.259 -31.790276 533.42957
313.02115 -28.192537 530.70416
316.70355 -28.032833 531.81189
322.2392 -27.794615 533.46167
313.15707 -24.282457 530.18823
316.83807 -24.120911 531.2959
320.52505 -23.960043 532.39777
128.67416 3.1205211 534.6803
128.89079 7.0608149 534.12512
129.21616 12.965302 533.29163
129.54195 18.863823 532.45734
132.90961 17.127886 534.17981
129.75943 22.792191 531.90076
133.23361 23.025885 533.34454
136.71579 23.258865 534.78345
